//X Y Z C2M_signed_distances
-30.47320366 34.45966339 20.48612213 16.008336
-31.47383308 34.46319962 20.53501320 16.689359
-32.47445297 34.46701050 20.58129120 17.379132
-33.47558594 34.47075653 20.62469673 18.069142
-34.47679901 34.47486496 20.66496849 18.767974
-35.47879410 34.47890472 20.70168686 19.492669
-36.48129272 34.48331070 20.73412514 20.226344
-37.48365402 34.48690414 20.76211166 20.959201
-38.48664856 34.49060440 20.78551292 21.695407
-39.48942566 34.49346161 20.80415344 22.449075
-40.49248505 34.49597549 20.81810570 23.219098
-41.49563599 34.49758911 20.82719421 23.990598
0.50542533 33.56042099 18.59275818 3.841126
-0.49383414 33.55971146 18.59043121 3.840994
-1.49216974 33.55890656 18.59680557 3.865991
-2.49072552 33.55850601 18.61239815 3.914111
-3.49056220 33.55532074 18.63461113 3.988213
-4.48905754 33.55052185 18.66354561 4.082634
-5.48781061 33.54648590 18.70061493 4.209544
-6.48710251 33.54085922 18.74399376 4.354100
-7.48686504 33.53441238 18.79286003 4.536106
-8.48467922 33.52698135 18.84751511 4.730202
-9.48453236 33.51984024 18.90799522 4.970702
-10.48263359 33.51184464 18.97266579 5.215398
-11.48238564 33.50410843 19.04134750 5.514664
-12.48147202 33.49615479 19.11262131 5.817167
-13.48124599 33.48889542 19.18592072 6.166414
-14.47953701 33.48203278 19.26141930 6.530034
-15.47929955 33.47605133 19.33862495 6.919624
-16.47894478 33.47002411 19.41570091 7.343420
-17.47776222 33.46522903 19.49326324 7.771224
-18.47677994 33.46063614 19.57114220 8.246399
-19.47638893 33.45718765 19.64871216 8.730368
-20.47527885 33.45475388 19.72559738 9.229173
-21.47477913 33.45270157 19.80154610 9.767842
-22.47380829 33.45095444 19.87625504 10.307524
-23.47314262 33.45018387 19.94975853 10.867942
-24.47255135 33.45003891 20.02164268 11.460034
-25.47192574 33.45010376 20.09170532 12.052707
-26.47141266 33.45103073 20.16008568 12.660239
-27.47077370 33.45228577 20.22649956 13.300722
-28.47033501 33.45410919 20.29100800 13.943163
-29.47001076 33.45639038 20.35343170 14.589535
-30.47002792 33.45905685 20.41351509 15.267190
-31.47028351 33.46239471 20.47091484 15.956572
-32.47092438 33.46576691 20.52533150 16.646235
-33.47168732 33.46959686 20.57662773 17.344224
-34.47311020 33.47335434 20.62444115 18.069318
-35.47465134 33.47733307 20.66842651 18.802399
-36.47698212 33.48146820 20.70815849 19.536027
-37.48003769 33.48569489 20.74276543 20.274039
-38.48292923 33.48931885 20.77206993 21.031445
-39.48651505 33.49275208 20.79584694 21.804150
-40.48996353 33.49535370 20.81390953 22.576810
-41.49415588 33.49747086 20.82599640 23.349522
-0.48954117 32.60661316 18.23459053 3.157518
-1.48824263 32.60618973 18.24196815 3.178844
-2.48729801 32.60297394 18.25991821 3.218581
-3.48832250 32.59922028 18.28611755 3.278482
-4.48692608 32.59541702 18.32078552 3.362462
-5.48664236 32.58847427 18.36368942 3.467120
-6.48677444 32.58040237 18.41371536 3.598387
-7.48571301 32.57252884 18.47127914 3.756924
-8.48601627 32.56389236 18.53546906 3.942416
-9.48430443 32.55322647 18.60475159 4.159110
-10.48457050 32.54295731 18.67967987 4.399430
-11.48290062 32.53240585 18.75873947 4.679929
-12.48289871 32.52222061 18.84129524 4.974144
-13.48149967 32.51339340 18.92674828 5.320661
-14.48138523 32.50377274 19.01389122 5.671534
-15.48023891 32.49415588 19.10205650 6.072304
-16.47952652 32.48743057 19.19182396 6.487490
-17.47859573 32.48033142 19.28147316 6.928376
-18.47743034 32.47420883 19.37102890 7.403132
-19.47610092 32.46881866 19.46043777 7.881496
-20.47536850 32.46432877 19.54913521 8.405297
-21.47418404 32.46080780 19.63657951 8.939935
-22.47346306 32.45827484 19.72246933 9.483251
-23.47220612 32.45605850 19.80661392 10.068402
-24.47141075 32.45462418 19.88899994 10.658158
-25.47070694 32.45427704 19.96919632 11.255833
-26.46967697 32.45380783 20.04718399 11.890943
-27.46911430 32.45451355 20.12311745 12.531850
-28.46824265 32.45552063 20.19668961 13.174436
-29.46763039 32.45709229 20.26801109 13.847540
-30.46715546 32.45928955 20.33683777 14.535552
-31.46719742 32.46195602 20.40290833 15.224377
-32.46744537 32.46519470 20.46579170 15.921126
-33.46813583 32.46850586 20.52522087 16.646298
-34.46916580 32.47237396 20.58091164 17.379264
-35.47088242 32.47621536 20.63240433 18.112620
-36.47283554 32.48005676 20.67930412 18.851233
-37.47563171 32.48431778 20.72114372 19.612595
-38.47932053 32.48833466 20.75694847 20.386914
-39.48307037 32.49188232 20.78633308 21.160821
-40.48726654 32.49496460 20.80904388 21.934586
-41.49227905 32.49724197 20.82454491 22.718667
-0.48262665 31.65791321 17.85287285 2.554910
-1.48222816 31.65810776 17.86253357 2.575575
-2.48332477 31.65496635 17.88313103 2.617007
-3.48468852 31.65064430 17.91359138 2.674091
-4.48485518 31.64352417 17.95348740 2.756604
-5.48635578 31.63584900 18.00295067 2.851758
-6.48554850 31.62685585 18.06134605 2.975375
-7.48580933 31.61638451 18.12869072 3.109111
-8.48649120 31.60351181 18.20216370 3.272337
-9.48699665 31.59141922 18.28195381 3.450475
-10.48521805 31.57822418 18.36779213 3.668046
-11.48572159 31.56534004 18.45914078 3.915043
-12.48423958 31.55270004 18.55406570 4.198906
-13.48441505 31.53906059 18.65179062 4.518085
-14.48349380 31.52715874 18.75151253 4.862789
-15.48266220 31.51729202 18.85323143 5.254972
-16.48091507 31.50603104 18.95568466 5.653765
-17.48086166 31.49680328 19.05840683 6.108468
-18.47877884 31.48856163 19.16077614 6.572314
-19.47772408 31.48140717 19.26297760 7.064652
-20.47583199 31.47514534 19.36408234 7.589454
-21.47506142 31.46996117 19.46379471 8.118774
-22.47337151 31.46565628 19.56147575 8.687927
-23.47227669 31.46241379 19.65712166 9.272595
-24.47087860 31.46003532 19.75049591 9.860609
-25.47000504 31.45826340 19.84143448 10.487271
-26.46887398 31.45741272 19.92952728 11.125130
-27.46758842 31.45690536 20.01517487 11.764047
-28.46667862 31.45746231 20.09834862 12.431384
-29.46567345 31.45843506 20.17884254 13.117661
-30.46499443 31.45996094 20.25659180 13.804900
-31.46432304 31.46204185 20.33135986 14.499447
-32.46431351 31.46475410 20.40296364 15.224421
-33.46468735 31.46804619 20.47081947 15.956704
-34.46546555 31.47142029 20.53461075 16.689341
-35.46685028 31.47528458 20.59397888 17.429465
-36.46896744 31.47929573 20.64833069 18.194062
-37.47145462 31.48304939 20.69724464 18.967839
-38.47493744 31.48726273 20.74007225 19.742467
-39.47935486 31.49115372 20.77576828 20.518113
-40.48439789 31.49457550 20.80359650 21.307830
-41.49016190 31.49711990 20.82289505 22.114451
-0.47364253 30.71883583 17.44464302 1.974445
-1.47512746 30.71640587 17.45286179 1.993695
-2.47849131 30.71170616 17.47452545 2.036230
-3.47769403 30.70834732 17.51259613 2.089932
-4.48490715 30.70016289 17.55846977 2.174982
-5.48178911 30.69030762 17.61437607 2.264389
-6.48567438 30.67915726 17.68394852 2.389244
-7.48652315 30.66460609 17.76049423 2.515599
-8.48893166 30.65040207 17.84518242 2.682906
-9.48809147 30.63478661 17.93670082 2.850193
-10.48900700 30.61918449 18.03587151 3.058426
-11.48816586 30.60191727 18.13959122 3.266251
-12.48870468 30.58518600 18.24768829 3.517484
-13.48686028 30.56995964 18.35955811 3.791136
-14.48730469 30.55598259 18.47450829 4.121027
-15.48583221 30.54031181 18.58964539 4.479150
-16.48546410 30.52712440 18.70593643 4.876689
-17.48309517 30.51545334 18.82280540 5.313821
-18.48207664 30.50495529 18.93960381 5.765509
-19.47983742 30.49527931 19.05531311 6.270700
-20.47854424 30.48691368 19.16979599 6.785335
-21.47614098 30.47984123 19.28229713 7.327041
-22.47483826 30.47405052 19.39287949 7.902387
-23.47301674 30.46964836 19.50083542 8.481769
-24.47141075 30.46576691 19.60592079 9.092870
-25.46985245 30.46298599 19.70798302 9.725790
-26.46854210 30.46121788 19.80707550 10.361216
-27.46697807 30.46021461 19.90296936 11.020063
-28.46542168 30.45963287 19.99599457 11.703574
-29.46419525 30.46001053 20.08605194 12.388734
-30.46299171 30.46100616 20.17303848 13.080916
-31.46225357 30.46270370 20.25682449 13.805003
-32.46146774 30.46478844 20.33707809 14.535520
-33.46141052 30.46749687 20.41361237 15.267171
-34.46198273 30.47091675 20.48579025 16.008555
-35.46291351 30.47439003 20.55322456 16.775431
-36.46482086 30.47837257 20.61546707 17.549315
-37.46743774 30.48246384 20.67171669 18.323663
-38.47072220 30.48629189 20.72150230 19.100568
-39.47515869 30.49032593 20.76396370 19.895795
-40.48101044 30.49419975 20.79762650 20.707290
-41.48804092 30.49708176 20.82114220 21.520415
0.54881817 29.77665520 16.99146461 1.416725
-0.45786837 29.78245735 16.99607468 1.417448
-1.46733522 29.78457642 17.00864410 1.438458
-2.47055483 29.78223610 17.03162193 1.485030
-3.47239923 29.77008247 17.06909370 1.531822
-4.47583818 29.76454544 17.12763214 1.617668
-5.48133898 29.75398445 17.19606400 1.701871
-6.48448372 29.73759651 17.27323341 1.825613
-7.48765373 29.72071266 17.36208725 1.950692
-8.49011421 29.70406914 17.46103287 2.113107
-9.49224949 29.68495750 17.56634712 2.281626
-10.49153614 29.66397095 17.67855835 2.482010
-11.49320889 29.64451981 17.79805183 2.692348
-12.49298000 29.62507439 17.92169380 2.936352
-13.49310970 29.60493088 18.04852295 3.186136
-14.49150372 29.58427429 18.17778015 3.472923
-15.49193478 29.56783104 18.30976677 3.779557
-16.48962021 29.55206680 18.44184494 4.157629
-17.48802757 29.53667831 18.57429886 4.560272
-18.48629951 29.52293968 18.70618248 5.012995
-19.48396492 29.51093864 18.83662224 5.499225
-20.48156357 29.50026703 18.96552086 6.003704
-21.47976685 29.49142075 19.09224892 6.560931
-22.47669792 29.48377800 19.21617889 7.125758
-23.47484970 29.47720146 19.33745575 7.715401
-24.47306252 29.47239685 19.45503998 8.340102
-25.47060966 29.46853256 19.56908798 8.968311
-26.46878433 29.46549797 19.67960930 9.616506
-27.46697426 29.46357536 19.78647995 10.296154
-28.46484566 29.46243477 19.88986397 10.977630
-29.46328354 29.46228409 19.98998451 11.666673
-30.46160889 29.46252060 20.08647728 12.388753
-31.46022606 29.46347237 20.17946815 13.117465
-32.45933533 29.46518517 20.26862907 13.847509
-33.45849991 29.46749496 20.35378647 14.589483
-34.45854187 29.47037315 20.43461800 15.358117
-35.45938492 29.47387886 20.51034737 16.131131
-36.46054840 29.47747612 20.58061028 16.904424
-37.46322632 29.48168564 20.64476967 17.684403
-38.46657181 29.48579788 20.70173454 18.485127
-39.47086334 29.48966980 20.75096321 19.297568
-40.47711945 29.49369812 20.79099655 20.111388
-41.48574448 29.49701691 20.81929207 20.926238
0.56077999 28.86375046 16.49879456 0.903496
-0.43948582 28.85510254 16.48396683 0.901673
-1.44458163 28.85798073 16.50774765 0.917279
-2.45588374 28.86138535 16.54574394 0.963354
-3.46455908 28.85784340 16.59335327 1.012590
-4.46708488 28.84173775 16.65734863 1.092035
-5.48000669 28.82485390 16.73405457 1.175289
-6.48348808 28.80636978 16.82172012 1.292192
-7.48741627 28.78759956 16.92731285 1.418171
-8.49104595 28.76375389 17.04163933 1.566824
-9.49613857 28.74186897 17.16494942 1.738640
-10.49696732 28.71841812 17.29413605 1.928492
-11.49845886 28.69321632 17.43094635 2.142469
-12.50014400 28.66794586 17.57140732 2.373629
-13.50120068 28.64337158 17.71457291 2.632198
-14.49799347 28.62167358 17.86178780 2.908049
-15.49673653 28.60041428 18.01292610 3.204974
-16.49736023 28.57952690 18.16269112 3.527567
-17.49453926 28.56037903 18.31108856 3.882901
-18.49227333 28.54354286 18.45947838 4.308742
-19.48982239 28.52845001 18.60617828 4.761454
-20.48640442 28.51557922 18.75080490 5.273209
-21.48351479 28.50403595 18.89293480 5.811187
-22.48114014 28.49446869 19.03163910 6.370166
-23.47746468 28.48635101 19.16650009 6.977369
-24.47514534 28.47968483 19.29779434 7.593551
-25.47274971 28.47427559 19.42453384 8.227088
-26.47000313 28.47038841 19.54711533 8.898940
-27.46726990 28.46747971 19.66568947 9.574682
-28.46522713 28.46579552 19.78024101 10.258666
-29.46269989 28.46436310 19.89063454 10.977485
-30.46074104 28.46438599 19.99720192 11.703670
-31.45890808 28.46478081 20.09961510 12.431146
-32.45737839 28.46598434 20.19792366 13.174395
-33.45618820 28.46773529 20.29187393 13.943114
-34.45550537 28.47025299 20.38128662 14.714285
-35.45572662 28.47345543 20.46562958 15.486762
-36.45693207 28.47705078 20.54408073 16.269868
-37.45858765 28.48079872 20.61616135 17.075360
-38.46225739 28.48526382 20.68101311 17.888263
-39.46680832 28.48935127 20.73715973 18.701367
-40.47288132 28.49328613 20.78364944 19.515685
-41.48314285 28.49689865 20.81719017 20.344771
-0.41632983 27.96778679 15.93684483 0.439098
-1.42485845 27.95595551 15.94375420 0.450415
-2.43569183 27.94248581 15.98288536 0.483674
-3.44122314 27.93819809 16.04884148 0.526008
-4.45324564 27.93026924 16.13611603 0.602257
-5.48260498 27.91258240 16.22400665 0.689226
-6.47315407 27.89434624 16.32560158 0.797192
-7.48888159 27.86690521 16.45252228 0.917367
-8.49302483 27.83827400 16.58282471 1.056257
-9.49999332 27.80862427 16.72533989 1.223760
-10.50200176 27.77993965 16.87672615 1.402495
-11.50905991 27.74779892 17.03034019 1.616666
-12.50669003 27.71768951 17.19016647 1.837737
-13.50784779 27.69201660 17.35802269 2.097466
-14.50630093 27.66445541 17.52754211 2.360612
-15.50728321 27.63523483 17.69612885 2.663641
-16.50421715 27.61011505 17.86470604 2.971446
-17.50348091 27.58898926 18.03371048 3.319197
-18.50025749 27.56757927 18.19930077 3.679430
-19.49691010 27.54892349 18.36351776 4.098931
-20.49319649 27.53263855 18.52533150 4.579361
-21.48938370 27.51840210 18.68390274 5.088396
-22.48587608 27.50631332 18.83830070 5.660212
-23.48250389 27.49588776 18.98812866 6.252186
-24.47814560 27.48777008 19.13364792 6.862464
-25.47568512 27.48117447 19.27435493 7.520677
-26.47210121 27.47551537 19.40954971 8.185761
-27.46883202 27.47159767 19.54048538 8.860674
-28.46573448 27.46884537 19.66676140 9.574454
-29.46297455 27.46736908 19.78832245 10.295949
-30.46051216 27.46626854 19.90523720 11.019773
-31.45787811 27.46633911 20.01753998 11.763990
-32.45593643 27.46695518 20.12528801 12.531582
-33.45431137 27.46845245 20.22823715 13.300821
-34.45288467 27.47048759 20.32632637 14.071135
-35.45243454 27.47325897 20.41926956 14.858666
-36.45302963 27.47672844 20.50624084 15.667418
-37.45492935 27.48065376 20.58634949 16.478980
-38.45734406 27.48433685 20.65896606 17.290686
-39.46247101 27.48912811 20.72281075 18.108184
-40.46894455 27.49304962 20.77578354 18.942489
-41.48008347 27.49677086 20.81476593 19.793357
-0.35968822 27.03973770 15.22780800 0.027865
-1.40256965 27.05817223 15.27384663 0.043151
-2.37766409 27.06095123 15.34589577 0.071915
-3.44628239 27.04022217 15.42399597 0.104856
-4.43503046 27.01446915 15.49138069 0.173884
-5.46719790 27.00008202 15.60881710 0.255446
-6.46192122 26.98279762 15.74725723 0.347571
-7.47493649 26.95632553 15.91953754 0.452122
-8.50472641 26.92590332 16.08170128 0.583247
-9.49338722 26.88926125 16.24121857 0.740673
-10.52127934 26.85028076 16.41593170 0.917319
-11.51318359 26.81512642 16.58982849 1.119864
-12.51588249 26.78203964 16.78084755 1.340060
-13.51322460 26.74623489 16.97576523 1.580114
-14.52092361 26.70913887 17.16851234 1.847186
-15.51659393 26.67734528 17.35749817 2.138733
-16.51609421 26.64811134 17.54920578 2.450408
-17.51326942 26.61761856 17.73705292 2.788621
-18.51030350 26.59457588 17.92490196 3.138692
-19.50650597 26.57219315 18.10826874 3.527139
-20.50149727 26.55150986 18.28820992 3.941241
-21.49730492 26.53444862 18.46460533 4.434523
-22.49259567 26.51948166 18.63592339 4.976534
-23.48802948 26.50748634 18.80203629 5.547477
-24.48370171 26.49617386 18.96245193 6.176209
-25.47902679 26.48778343 19.11763763 6.821854
-26.47521782 26.48200798 19.26739883 7.482366
-27.47150993 26.47641754 19.41098213 8.185700
-28.46705627 26.47244644 19.54938507 8.898074
-29.46407509 26.46998787 19.68283653 9.616186
-30.46042824 26.46839333 19.81051254 10.360452
-31.45752335 26.46783257 19.93331909 11.124526
-32.45495987 26.46823311 20.05083275 11.890919
-33.45250320 26.46913528 20.16310310 12.659988
-34.45084763 26.47102165 20.27018166 13.453247
-35.44955826 26.47336197 20.37166214 14.261178
-36.44943237 26.47656441 20.46719933 15.070824
-37.45077515 26.48027420 20.55571175 15.882039
-38.45346451 26.48444176 20.63608360 16.703643
-39.45747757 26.48830986 20.70752335 17.544795
-40.46512604 26.49313736 20.76762009 18.395356
-41.47656631 26.49662590 20.81211662 19.247739
0.69253403 26.17306519 14.42907524 -0.279872
-0.31131491 26.19027901 14.43484020 -0.272113
-1.35343874 26.17599869 14.44698811 -0.268478
-2.35336351 26.15326881 14.50423241 -0.250777
-3.38508129 26.14530754 14.63454247 -0.234965
-4.43565607 26.15604782 14.76483727 -0.160546
-5.42454243 26.13471031 14.90231895 -0.095744
-6.46981239 26.10001373 15.08296490 -0.029136
-7.46242666 26.04253578 15.25728607 0.053003
-8.48684597 26.00905609 15.48401260 0.156724
-9.51167774 25.97792625 15.69479084 0.306052
-10.50832367 25.94054222 15.90619850 0.469574
-11.53074360 25.90307999 16.12542152 0.661093
-12.52764416 25.84960747 16.33043861 0.871322
-13.52537155 25.80218506 16.55278015 1.094074
-14.53324127 25.76307678 16.77769089 1.359889
-15.53055477 25.72440720 16.99392509 1.636376
-16.53075218 25.68609238 17.20891571 1.951833
-17.52479172 25.65650940 17.42357826 2.275057
-18.52364731 25.62341118 17.63292885 2.636417
-19.51731873 25.59690094 17.83805466 3.009267
-20.51217461 25.57414246 18.03985786 3.406306
-21.50740814 25.55278969 18.23504639 3.841988
-22.50075722 25.53441620 18.42403412 4.331436
-23.49604034 25.51863098 18.60752106 4.901628
-24.48991966 25.50671005 18.78426743 5.508071
-25.48430061 25.49621201 18.95505333 6.138269
-26.47974014 25.48697281 19.11920738 6.821245
-27.47415543 25.48147011 19.27698708 7.519283
-28.47006798 25.47679520 19.42868614 8.226465
-29.46529388 25.47283363 19.57385254 8.967021
-30.46143150 25.47093391 19.71340752 9.725127
-31.45775604 25.46958542 19.84679985 10.486533
-32.45403290 25.46918106 19.97450256 11.254682
-33.45152664 25.47016144 20.09659576 12.052845
-34.44861603 25.47130585 20.21275330 12.858003
-35.44718170 25.47376442 20.32318497 13.665818
-36.44617081 25.47641945 20.42712021 14.475557
-37.44670486 25.48005676 20.52415085 15.304326
-38.44942093 25.48423958 20.61278152 16.150462
-39.45324326 25.48835373 20.69156456 16.998116
-40.46036911 25.49263763 20.75892639 17.848260
-41.47361755 25.49682045 20.80949974 18.703883
0.79743451 25.29001808 13.43146610 -0.498188
-0.25007358 25.29036713 13.42872429 -0.501959
-1.27557540 25.32084846 13.48380661 -0.485762
-2.34317875 25.34453773 13.53126144 -0.418841
-3.28044510 25.30328178 13.68052292 -0.448786
-4.43659639 25.26651955 13.85112381 -0.421815
-5.37143707 25.26064491 14.00877953 -0.356830
-6.45670462 25.20789719 14.26744938 -0.334315
-7.46971941 25.18344116 14.48912716 -0.236753
-8.47112370 25.11758995 14.74428558 -0.171256
-9.50232887 25.07479286 15.03684807 -0.065312
-10.51810646 25.02457047 15.30487442 0.072783
-11.52432156 24.97383499 15.57678795 0.231697
-12.55150509 24.93773651 15.84683895 0.440326
-13.54267979 24.87943459 16.08941650 0.658068
-14.54367733 24.82638168 16.34928322 0.898619
-15.55530739 24.77679825 16.59677696 1.178602
-16.53888893 24.73619080 16.84142303 1.473285
-17.54440308 24.69463730 17.08930779 1.797339
-18.53742981 24.65988922 17.32329369 2.148954
-19.53032875 24.62733269 17.55389977 2.513872
-20.52772713 24.59645844 17.77732277 2.916859
-21.51761818 24.57163811 17.99252129 3.324162
-22.51304436 24.55087471 18.20295334 3.776244
-23.50468254 24.53255081 18.40418625 4.295060
-24.49843407 24.51708031 18.59900856 4.865298
-25.49120522 24.50443459 18.78599167 5.506383
-26.48484612 24.49539375 18.96610260 6.175366
-27.47895050 24.48673248 19.13861084 6.861119
-28.47328377 24.48040390 19.30370140 7.591463
-29.46752739 24.47640038 19.46200562 8.338050
-30.46323967 24.47299957 19.61344337 9.091623
-31.45800209 24.47129250 19.75808334 9.859052
-32.45449066 24.47082520 19.89651489 10.657628
-33.45009613 24.47050667 20.02833176 11.458883
-34.44737625 24.47208405 20.15425301 12.264013
-35.44461441 24.47378922 20.27363777 13.075908
-36.44339371 24.47674179 20.38644028 13.912588
-37.44321442 24.47987747 20.49170494 14.756732
-38.44470978 24.48381615 20.58867836 15.602807
-39.44931412 24.48848915 20.67550850 16.451741
-40.45601273 24.49255371 20.74973297 17.308694
-41.46984863 24.49668694 20.80665207 18.186692
0.90247518 24.39488411 12.22966671 -0.613634
-0.16439302 24.42192459 12.22368145 -0.599950
-1.16360760 24.43822479 12.27012634 -0.594611
-2.25669837 24.47480392 12.39113903 -0.555269
-3.23475862 24.45656204 12.51930046 -0.549230
-4.35741711 24.44091606 12.76229191 -0.546981
-5.33973885 24.42098045 12.98505497 -0.514556
-6.43017673 24.36090469 13.26668549 -0.502858
-7.43024397 24.32977676 13.56904221 -0.452035
-8.46776581 24.26947594 13.93373203 -0.423562
-9.51216030 24.19099426 14.24712276 -0.345723
-10.53096390 24.13163185 14.56101036 -0.225248
-11.52700996 24.07551575 14.91298008 -0.104021
-12.54521847 24.01003456 15.26355362 0.047188
-13.57377338 23.96667099 15.58640480 0.262572
-14.56338978 23.89788055 15.86878777 0.485873
-15.56577778 23.85137939 16.17217064 0.748802
-16.56599998 23.79483414 16.45444489 1.029282
-17.56387711 23.73901176 16.72397041 1.347626
-18.55178642 23.69726753 16.99125099 1.675436
-19.55344200 23.65743637 17.25232124 2.054200
-20.53968430 23.62450409 17.49778938 2.438200
-21.53461456 23.59552574 17.74019051 2.855184
-22.52519226 23.56855011 17.97022057 3.292577
-23.51624680 23.54763794 18.19295692 3.744195
-24.50826836 23.52977371 18.40690994 4.293600
-25.50016022 23.51493073 18.61137390 4.900054
-26.49160957 23.50164604 18.80737686 5.543589
-27.48486710 23.49246597 18.99542046 6.248949
-28.47715569 23.48542023 19.17512131 6.974387
-29.47163200 23.47956848 19.34704018 7.713331
-30.46502113 23.47570992 19.51067734 8.479069
-31.45997238 23.47311592 19.66712761 9.270762
-32.45417786 23.47152138 19.81636047 10.066299
-33.45029449 23.47203445 19.95893860 10.867337
-34.44594955 23.47220230 20.09428596 11.685252
-35.44268417 23.47418785 20.22312164 12.524510
-36.44052124 23.47652626 20.34488869 13.366192
-37.43992233 23.48010063 20.45881653 14.210354
-38.44090652 23.48384285 20.56394958 15.058119
-39.44441986 23.48799133 20.65884781 15.923590
-40.45205307 23.49283409 20.74057198 16.805362
-41.46611786 23.49668121 20.80357933 17.692450
-0.07808753 23.48334122 10.89876938 -0.693807
-1.06469667 23.50597382 10.90182972 -0.662122
-2.10990977 23.52065849 11.04448128 -0.657811
-3.20205998 23.57883835 11.22479725 -0.603138
-4.20676613 23.55361176 11.45831490 -0.619024
-5.35481882 23.54869080 11.77234840 -0.590417
-6.30573082 23.53068733 12.09284687 -0.588365
-7.43445587 23.47337532 12.52658653 -0.594129
-8.43260193 23.38985443 12.86485958 -0.566633
-9.53681946 23.33377838 13.30811691 -0.515014
-10.49853420 23.29573059 13.71727371 -0.434881
-11.56624889 23.19633102 14.16953850 -0.366895
-12.55789948 23.11562538 14.55038929 -0.238160
-13.57471561 23.04248238 14.96770859 -0.092724
-14.59404469 22.99265480 15.34975815 0.124606
-15.57897568 22.91322327 15.68696594 0.343257
-16.60031700 22.85101700 16.02617836 0.625930
-17.58180428 22.79989433 16.33329010 0.921835
-18.58207512 22.74263191 16.63809395 1.256176
-19.56986618 22.69421768 16.92437363 1.609308
-20.56201553 22.65532875 17.20557022 1.992252
-21.55165672 22.61842155 17.47184753 2.403767
-22.53993416 22.59009743 17.72807312 2.825726
-23.53133011 22.56405258 17.97356796 3.290301
-24.51971436 22.54166794 18.20650673 3.771854
-25.51075745 22.52446747 18.43056679 4.326644
-26.50084686 22.51106453 18.64391708 4.971952
-27.49145508 22.49907684 18.84784889 5.655359
-28.48329353 22.48976517 19.04285240 6.365314
-29.47571182 22.48305321 19.22850800 7.121698
-30.46846771 22.47829056 19.40535355 7.898995
-31.46194839 22.47501755 19.57387352 8.685302
-32.45552063 22.47332573 19.73447418 9.480573
-33.45005035 22.47212029 19.88769722 10.305717
-34.44538879 22.47323799 20.03333473 11.141613
-35.44123077 22.47426987 20.17152977 11.979626
-36.43786240 22.47673988 20.30243301 12.820244
-37.43668365 22.47992897 20.42535591 13.674560
-38.43715286 22.48386574 20.53888321 14.548348
-39.44009018 22.48821259 20.64178467 15.427430
-40.44752884 22.49266815 20.73116112 16.310155
-41.46260071 22.49681473 20.80059242 17.198584
0.08376507 22.33733749 9.35714531 -0.776757
-1.01107681 22.42848587 9.48179626 -0.767379
-1.98907256 22.46367264 9.59594631 -0.747436
-3.11154866 22.49372673 9.79628563 -0.729804
-4.11911631 22.55721283 10.05429840 -0.697026
-5.20329094 22.58344650 10.42675400 -0.693768
-6.31440496 22.60934448 10.76652431 -0.631570
-7.29840231 22.55773354 11.17864037 -0.655968
-8.45436001 22.54734421 11.73607063 -0.630769
-9.46288872 22.51654625 12.19033813 -0.586482
-10.51964283 22.41812897 12.73650932 -0.585424
-11.57260227 22.32885933 13.23704529 -0.522392
-12.58746338 22.25443649 13.75720501 -0.446183
-13.60471821 22.15097618 14.22402573 -0.327832
-14.60874081 22.06571198 14.69768333 -0.183939
-15.61447525 22.00068665 15.14854050 0.016418
-16.62003136 21.92703438 15.54319000 0.260256
-17.61097717 21.85933304 15.91106033 0.539002
-18.61564445 21.79507828 16.25590897 0.859535
-19.59116364 21.74139214 16.57815361 1.195707
-20.58797264 21.69068909 16.89687729 1.575088
-21.57026482 21.64837646 17.18993568 1.965841
-22.55891037 21.61214828 17.47563171 2.399699
-23.54785156 21.58083916 17.74394035 2.850344
-24.53566360 21.55670357 17.99915695 3.318231
-25.52186775 21.53562355 18.24250984 3.833507
-26.51221848 21.51834297 18.47510719 4.427511
-27.49989319 21.50565910 18.69594002 5.080710
-28.49054909 21.49530220 18.90698433 5.804719
-29.48132133 21.48708534 19.10698128 6.555147
-30.47270966 21.48110008 19.29736137 7.322788
-31.46468544 21.47715569 19.47864914 8.114545
-32.45763397 21.47463417 19.65103722 8.936940
-33.45075607 21.47357941 19.81496429 9.765295
-34.44501877 21.47332764 19.97108459 10.598391
-35.44000244 21.47494507 20.11913872 11.439394
-36.43590927 21.47678757 20.25927734 12.303250
-37.43344498 21.47995186 20.39114761 13.176749
-38.43334579 21.48388100 20.51350021 14.053186
-39.43606186 21.48829651 20.62461853 14.932422
-40.44314957 21.49278069 20.72152710 15.817052
-41.45872879 21.49690628 20.79759598 16.720641
0.10587786 21.17848206 7.98750401 -0.811291
-0.87559175 21.20117188 8.06741524 -0.835814
-2.02595711 21.27297401 8.16374779 -0.784600
-2.93635488 21.32732391 8.36261749 -0.796094
-4.08327103 21.38838577 8.66552925 -0.797075
-5.08158398 21.42540932 8.93978310 -0.774888
-6.16992950 21.52609062 9.46009922 -0.793463
-7.28013754 21.59998131 9.87918377 -0.706781
-8.32233620 21.56863976 10.37958527 -0.716729
-9.44604492 21.60608673 10.98375225 -0.655747
-10.48404884 21.56486702 11.55234814 -0.628886
-11.55340862 21.47391319 12.24827194 -0.644658
-12.61831570 21.38649940 12.81513214 -0.572436
-13.64782429 21.30142212 13.39755440 -0.481081
-14.63421440 21.19110489 13.94390297 -0.387484
-15.65686607 21.08335686 14.49151802 -0.243580
-16.64039993 21.00643730 14.98736477 -0.053505
-17.65446472 20.92764664 15.44711971 0.200987
-18.63746643 20.85725212 15.83922195 0.486605
-19.62534523 20.79260445 16.21785355 0.820450
-20.61455727 20.72674561 16.56432533 1.172849
-21.59402084 20.68100739 16.89597130 1.569087
-22.58346748 20.63532829 17.20986557 1.987555
-23.56575775 20.60097694 17.50366020 2.429104
-24.55165482 20.57219315 17.78427315 2.907576
-25.53894997 20.54775047 18.04920006 3.397620
-26.52308846 20.52845001 18.30031204 3.929761
-27.51094437 20.51312828 18.54046822 4.569145
-28.49922180 20.50028038 18.76733780 5.264503
-29.48789406 20.49142265 18.98279190 5.996504
-30.47800446 20.48453712 19.18746758 6.778998
-31.46851349 20.47918701 19.38147545 7.584281
-32.46020508 20.47620201 19.56602097 8.401401
-33.45221710 20.47451019 19.74115753 9.226171
-34.44519043 20.47432899 19.90770340 10.074531
-35.43902206 20.47497749 20.06590080 10.940267
-36.43434906 20.47731400 20.21558952 11.810131
-37.43059540 20.47991371 20.35639954 12.682195
-38.42980576 20.48398399 20.48770714 13.558921
-39.43186951 20.48818207 20.60711098 14.450445
-40.43848801 20.49304008 20.71192551 15.359151
-41.45552444 20.49695396 20.79462242 16.278167
0.10174563 19.97103500 6.70551491 -0.796592
-0.87960976 19.98672676 6.75542355 -0.810298
-1.95589185 20.06467819 6.93616867 -0.828264
-2.97644544 20.13233566 7.07741928 -0.792808
-3.97082710 20.18062973 7.34287643 -0.831498
-5.08254337 20.30649185 7.69700336 -0.803166
-6.04844332 20.28077507 7.95797062 -0.802810
-7.18636942 20.39845085 8.54308319 -0.836093
-8.22836208 20.51432228 9.02634716 -0.758004
-9.34907532 20.56006432 9.67728901 -0.771799
-10.42951584 20.62022018 10.34426212 -0.709225
-11.53122520 20.55100632 11.02455330 -0.694248
-12.60701752 20.52433777 11.78841496 -0.652896
-13.65968132 20.42919731 12.45377445 -0.599496
-14.69528484 20.32641029 13.11946869 -0.514444
-15.68948841 20.21460342 13.73973656 -0.422701
-16.66861343 20.10433006 14.35712242 -0.292926
-17.69583130 19.99690247 14.90963936 -0.098193
-18.66002846 19.92785454 15.39095688 0.163163
-19.67723274 19.83704948 15.82666206 0.469628
-20.63880157 19.77581406 16.20755768 0.817113
-21.62640953 19.71354675 16.58585358 1.190704
-22.60524178 19.66652107 16.93190384 1.598009
-23.59099007 19.62370491 17.25688934 2.045279
-24.57099533 19.58879089 17.56071663 2.504296
-25.55573082 19.56085396 17.84948540 2.996652
-26.53777313 19.53907585 18.12192154 3.512756
-27.52332115 19.52030182 18.38079834 4.085857
-28.50946236 19.50683784 18.62470818 4.749643
-29.49545288 19.49551773 18.85606766 5.488560
-30.48431206 19.48749161 19.07571411 6.262661
-31.47379303 19.48220062 19.28310585 7.058637
-32.46302414 19.47764206 19.47953987 7.875990
-33.45466995 19.47577667 19.66641045 8.727182
-34.44568253 19.47492218 19.84347916 9.584851
-35.43878174 19.47572517 20.01195335 10.448979
-36.43267441 19.47719383 20.17128563 11.316719
-37.42856598 19.48048401 20.32140732 12.199476
-38.42611313 19.48370552 20.46132851 13.099611
-39.42801666 19.48851776 20.58945847 14.006800
-40.43414307 19.49273682 20.70208549 14.917366
-41.45162964 19.49704552 20.79154015 15.837325
0.15172374 18.87305832 5.67187023 -0.758850
-1.00483465 18.92002678 5.74091911 -0.764477
-1.88745022 18.91556549 5.79124641 -0.760043
-3.01352406 19.00476074 6.03332233 -0.791130
-3.95422840 19.04113388 6.21047974 -0.790751
-5.03685760 19.07567596 6.51429749 -0.827465
-6.11232662 19.23729515 6.87512684 -0.769415
-7.03502464 19.22591209 7.21776009 -0.809961
-8.18150520 19.34511757 7.84275723 -0.842262
-9.23151684 19.44131279 8.34766197 -0.793197
-10.33667088 19.49789619 9.05719566 -0.808752
-11.49116039 19.62869644 9.82956219 -0.719385
-12.58817768 19.58729744 10.54920101 -0.673090
-13.66006184 19.53946495 11.41873455 -0.666927
-14.71468449 19.44188309 12.18306065 -0.616320
-15.73365498 19.34395409 12.92510414 -0.536333
-16.76144791 19.18177223 13.59272385 -0.438907
-17.71124840 19.08817673 14.26612854 -0.311215
-18.71112823 18.98201942 14.88430977 -0.120580
-19.69703865 18.91346169 15.40455437 0.159029
-20.68289757 18.83425713 15.85412788 0.485269
-21.66423798 18.75194931 16.25458145 0.846300
-22.63536835 18.69007874 16.63449860 1.244621
-23.61637688 18.64587784 16.99766922 1.670306
-24.59624290 18.60716057 17.33014488 2.136025
-25.57213974 18.57575417 17.64342880 2.621474
-26.55608559 18.55044556 17.94086266 3.123878
-27.53752899 18.52863693 18.21721268 3.662111
-28.52000427 18.51335907 18.47994614 4.293686
-29.50568962 18.50061035 18.72795677 5.000924
-30.49177551 18.49068451 18.96174240 5.754869
-31.47842216 18.48382568 19.18311691 6.563196
-32.46829224 18.48005104 19.39270401 7.397469
-33.45646286 18.47679710 19.59051323 8.241793
-34.44771576 18.47602081 19.77900314 9.097314
-35.43855667 18.47602654 19.95734406 9.966213
-36.43172836 18.47797775 20.12663651 10.858821
-37.42628860 18.48014069 20.28594971 11.756705
-38.42332458 18.48428535 20.43479729 12.658933
-39.42372131 18.48816681 20.57135582 13.564647
-40.42989731 18.49297333 20.69205475 14.476857
-41.44820404 18.49689293 20.78827858 15.408820
-0.01786303 17.83265495 4.83346462 -0.734405
-0.90383273 17.85814857 4.88333035 -0.748686
-2.06502390 17.94986153 5.00591564 -0.734774
-2.91313243 17.91265678 5.09646893 -0.757153
-4.12470961 17.96038437 5.31455421 -0.764668
-4.92859840 17.99468613 5.50951195 -0.772889
-6.13388586 18.03474617 5.87911224 -0.798494
-7.09721375 18.15545464 6.16407490 -0.729242
-8.08732796 18.14291954 6.59402561 -0.792864
-9.23682976 18.30684280 7.24116516 -0.802031
-10.22606277 18.40447426 7.82684135 -0.795941
-11.35972309 18.45815849 8.61484432 -0.849941
-12.47912502 18.62277412 9.46264458 -0.775011
-13.66453743 18.57808876 10.27828121 -0.707030
-14.68272686 18.54966736 11.15200329 -0.683868
-15.82457542 18.43588066 12.02393246 -0.602094
-16.79220772 18.37283707 12.79778576 -0.509556
-17.76775742 18.19218636 13.58049488 -0.465804
-18.76393318 18.05230331 14.29085541 -0.328527
-19.72996521 17.94800949 14.90408134 -0.113902
-20.72913170 17.86684227 15.45510292 0.179089
-21.70052528 17.80613708 15.91648865 0.535100
-22.67761612 17.73460770 16.33523941 0.917927
-23.64632034 17.66922760 16.72104836 1.337352
-24.61906242 17.62762451 17.09107399 1.785495
-25.59624672 17.59205437 17.43550682 2.258224
-26.57472229 17.55950546 17.75310326 2.770619
-27.55313492 17.53842545 18.05188560 3.300065
-28.53322792 17.51909828 18.33313179 3.864821
-29.51717758 17.50521088 18.59811020 4.544755
-30.49964142 17.49460793 18.84679222 5.300636
-31.48602486 17.48695755 19.08256721 6.098470
-32.47240448 17.48084450 19.30434227 6.920271
-33.46055984 17.47852707 19.51457977 7.766064
-34.44884872 17.47645569 19.71367455 8.641610
-35.43943787 17.47719765 19.90288353 9.528312
-36.43107224 17.47791481 20.08165169 10.420017
-37.42456436 17.48089790 20.25025940 11.317008
-38.42041016 17.48397636 20.40794373 12.219286
-39.41980362 17.48849678 20.55315208 13.138093
-40.42618561 17.49306488 20.68188858 14.073448
-41.44385147 17.49693871 20.78483009 15.019121
1.02834702 16.76757240 4.16452217 -0.766819
-0.04084468 16.80833435 4.15646362 -0.754973
-0.99432284 16.82748413 4.16510773 -0.736993
-2.02753019 16.82932091 4.25213051 -0.759473
-3.08862114 16.88977432 4.36176109 -0.733329
-4.01722574 16.92589569 4.54103279 -0.761442
-5.11222315 16.94571495 4.75564957 -0.753076
-6.02030182 16.99044418 5.01289558 -0.761911
-7.13506508 17.08926392 5.42086124 -0.793301
-8.14627647 17.12561798 5.72304153 -0.736725
-9.08892250 17.13386726 6.17688274 -0.803937
-10.28891754 17.25840569 6.80869675 -0.783488
-11.20618343 17.35341835 7.42230225 -0.823350
-12.43412876 17.37032509 8.26656437 -0.863208
-13.50547791 17.55713081 9.14960194 -0.794102
-14.73451233 17.58119202 10.09697723 -0.708638
-15.76162624 17.56544685 11.01622963 -0.663370
-16.84913445 17.44442177 11.98626518 -0.616747
-17.84775162 17.29952812 12.79392242 -0.539716
-18.83709145 17.14293861 13.61067009 -0.446880
-19.79244995 17.02083015 14.32999706 -0.295586
-20.75661278 16.92754745 14.99643230 -0.069928
-21.74423599 16.83866692 15.54993820 0.242435
-22.72164536 16.76591682 16.01959229 0.622213
-23.68194580 16.70780563 16.44472504 1.024447
-24.64546776 16.65115547 16.84838295 1.455936
-25.62197876 16.60781670 17.22277832 1.933769
-26.59413719 16.57641792 17.56548500 2.430766
-27.57209587 16.54745674 17.88577271 2.950284
-28.54906273 16.52601624 18.18472481 3.505478
-29.52832222 16.50971603 18.46636963 4.138458
-30.50994682 16.49819756 18.73165321 4.861523
-31.49425697 16.48835373 18.98066139 5.642260
-32.47788239 16.48340034 19.21543121 6.477753
-33.46407700 16.47930527 19.43820953 7.336490
-34.45174026 16.47825241 19.64877892 8.210000
-35.44023132 16.47708130 19.84804153 9.091982
-36.43097687 16.47900009 20.03676796 9.984948
-37.42298508 16.48085403 20.21451378 10.897078
-38.41792297 16.48456001 20.38105392 11.821730
-39.41629410 16.48822403 20.53459930 12.750577
-40.42142105 16.49303627 20.67155647 13.686308
-41.44082260 16.49721336 20.78165817 14.634115
0.90945506 15.69569683 3.51513863 -0.767816
0.00400531 15.73685455 3.54079628 -0.783650
-1.13049221 15.80701447 3.58327675 -0.766442
-2.03959894 15.82578754 3.60988998 -0.737297
-3.11259460 15.87751579 3.76615906 -0.765579
-4.06842279 15.89106464 3.89828110 -0.758699
-5.14338303 15.93162441 4.10236740 -0.747127
-6.07936811 15.94024658 4.30932045 -0.750314
-7.14670420 15.91100311 4.59962654 -0.782769
-8.13614273 16.04895020 4.99938488 -0.770400
-9.18187237 16.09190750 5.41289234 -0.782140
-10.17812347 16.13875008 5.89148331 -0.791314
-11.25419140 16.21748734 6.49525261 -0.808284
-12.31676674 16.36150169 7.22117519 -0.805687
-13.40974808 16.41220284 8.05013752 -0.844776
-14.60549641 16.52178764 9.06821632 -0.822826
-15.73692226 16.57680130 10.00804329 -0.727188
-16.83167076 16.49213791 11.03698730 -0.706664
-17.92337799 16.41429710 12.03284454 -0.598154
-18.88436508 16.28888321 12.89670277 -0.526561
-19.87750244 16.11914063 13.75012589 -0.418489
-20.83120918 15.96807480 14.45102310 -0.239735
-21.78788948 15.87803364 15.12470245 0.010972
-22.75166512 15.81069660 15.68610001 0.345567
-23.71666908 15.74317551 16.17333221 0.732855
-24.68476677 15.67313957 16.60430336 1.162461
-25.64272690 15.62511635 17.00395393 1.613680
-26.62147141 15.58567810 17.37810516 2.115244
-27.58979988 15.55652523 17.71675110 2.639624
-28.56718254 15.53314781 18.03655243 3.183073
-29.54123306 15.51546001 18.33469200 3.757100
-30.52273560 15.50103855 18.61567307 4.462327
-31.50186157 15.49196434 18.87813950 5.240019
-32.48486710 15.48501110 19.12703323 6.062463
-33.46847153 15.48082066 19.36169624 6.911334
-34.45456696 15.47827530 19.58382416 7.782776
-35.44210434 15.47863007 19.79354286 8.683792
-36.43066025 15.47886562 19.99185562 9.594737
-37.42216873 15.48169804 20.17899323 10.513375
-38.41520691 15.48445797 20.35411072 11.435839
-39.41322327 15.48890495 20.51617432 12.364882
-40.41736221 15.49272537 20.66085052 13.302002
-41.43665695 15.49687767 20.77820969 14.261922
-0.05498982 14.69291592 2.95537186 -0.757063
-1.12225175 14.71362114 3.00957680 -0.778792
-2.10845661 14.77636433 3.07194138 -0.763122
-3.10368276 14.78404522 3.18489265 -0.777224
-4.15990734 14.84397697 3.34065628 -0.763364
-5.11770630 14.88948345 3.52349281 -0.763861
-6.18944120 14.92579651 3.75673676 -0.767183
-7.17275429 14.98733234 3.98010254 -0.711709
-8.12456226 14.97171497 4.31220436 -0.765627
-9.26421642 15.03135109 4.73118401 -0.760771
-10.15272713 15.09068871 5.14422226 -0.769728
-11.24452305 15.15262985 5.75085640 -0.819199
-12.26203823 15.22327709 6.32986164 -0.820997
-13.38244247 15.33294773 7.10956764 -0.815398
-14.47014904 15.41220379 7.97305870 -0.831207
-15.66444683 15.49312210 9.05130959 -0.828927
-16.82365036 15.54975796 10.06403542 -0.714023
-17.86285973 15.46969986 11.14885998 -0.708804
-18.98973656 15.34465599 12.20167923 -0.594458
-19.92560005 15.21033287 13.05782127 -0.501013
-20.88131142 15.10042191 13.97087669 -0.388974
-21.83234406 14.95193768 14.69354820 -0.182886
-22.79797363 14.84415150 15.33977699 0.104959
-23.76458359 14.74922180 15.87205124 0.468440
-24.71399689 14.69846821 16.34990311 0.881812
-25.67835999 14.64223671 16.78791618 1.337155
-26.64208603 14.59988213 17.18493271 1.821746
-27.61606026 14.56660461 17.55115891 2.334916
-28.58308601 14.53981113 17.88686752 2.880989
-29.55828094 14.52003574 18.20412827 3.449876
-30.53390503 14.50537968 18.49955559 4.100710
-31.51195526 14.49503422 18.77732658 4.847886
-32.49179077 14.48719215 19.03899574 5.658573
-33.47451019 14.48205948 19.28592491 6.521359
-34.45793533 14.47947311 19.51877213 7.405375
-35.44377136 14.47845840 19.73918724 8.304225
-36.43114853 14.48006916 19.94733810 9.213112
-37.42102432 14.48160267 20.14365196 10.129154
-38.41342545 14.48527622 20.32753181 11.058850
-39.40982056 14.48853588 20.49767876 12.004304
-40.41365814 14.49328327 20.65024376 12.960781
-41.43273926 14.49683285 20.77444649 13.930498
0.89108449 13.63373280 2.46866989 -0.753973
-0.14303918 13.66040230 2.43867111 -0.725924
-1.09788585 13.68368816 2.48307228 -0.739243
-2.15802407 13.72785854 2.57771111 -0.753705
-3.13974547 13.76369381 2.67203903 -0.745730
-4.14925432 13.79537010 2.83813667 -0.774036
-5.18538666 13.81752300 2.99729347 -0.768836
-6.17610121 13.86831570 3.21872902 -0.772238
-7.21004915 13.93382454 3.48723984 -0.760311
-8.21226311 13.94896698 3.75777626 -0.754436
-9.20724106 14.00054646 4.14552689 -0.773127
-10.23754692 14.05956650 4.56199455 -0.780044
-11.23560619 14.06365108 5.02608204 -0.790021
-12.28875446 14.16292572 5.61579323 -0.792593
-13.28170586 14.24701309 6.28156853 -0.829622
-14.40932846 14.36834240 7.15768242 -0.852172
-15.54295731 14.43695068 8.08550644 -0.849833
-16.72988129 14.52178955 9.17215347 -0.807507
-17.90743446 14.49276829 10.25970554 -0.715191
-18.96179008 14.40927029 11.39333725 -0.679787
-20.01730537 14.31163120 12.44764900 -0.563408
-20.95630264 14.08695126 13.32036400 -0.482220
-21.90271950 13.97840309 14.21267700 -0.335601
-22.84670639 13.86761951 14.93986034 -0.089078
-23.79663467 13.81311512 15.57690048 0.241451
-24.75888252 13.72321415 16.10218048 0.637266
-25.71291542 13.65802002 16.56414413 1.071884
-26.67078781 13.60963917 16.99134445 1.550555
-27.63908768 13.57305813 17.38236427 2.068729
-28.60357666 13.54789257 17.74020386 2.605794
-29.57481003 13.52544785 18.07458305 3.161430
-30.54650879 13.50949001 18.38550758 3.768225
-31.52274513 13.49789524 18.67824173 4.500784
-32.50026703 13.48940468 18.95253372 5.306597
-33.48056030 13.48371887 19.21099091 6.156456
-34.46228790 13.48049641 19.45467377 7.032626
-35.44585419 13.47964954 19.68524933 7.928723
-36.43204117 13.48000526 19.90329170 8.850632
-37.42009354 13.48251820 20.10865021 9.785532
-38.41162109 13.48506641 20.30124855 10.727281
-39.40669632 13.48953629 20.47952271 11.675005
-40.41035080 13.49277878 20.63963699 12.631171
-41.42856598 13.49698734 20.77067757 13.600710
0.87690592 12.56293488 1.97990990 -0.686889
-0.17196015 12.62739468 1.99684525 -0.688844
-1.13633525 12.64163303 2.01576424 -0.683470
-2.17269802 12.65756321 2.09357452 -0.702995
-3.16434956 12.70279884 2.20882416 -0.720117
-4.18537903 12.72919464 2.35261726 -0.741151
-5.18464613 12.80642891 2.55026436 -0.762902
-6.20567417 12.83985043 2.75273705 -0.757094
-7.21293211 12.86728573 3.00806236 -0.780149
-8.26672840 12.94228077 3.31103325 -0.767187
-9.22563267 12.94886303 3.60660362 -0.765281
-10.28148651 12.98702908 4.02252007 -0.775880
-11.29647827 13.05993080 4.44429970 -0.746548
-12.26876163 13.11008739 4.97691441 -0.778143
-13.29752541 13.16306019 5.61692047 -0.820744
-14.32736111 13.21276951 6.34713936 -0.868336
-15.45009518 13.35424042 7.27600002 -0.887133
-16.63025284 13.41681862 8.28606892 -0.866369
-17.86820793 13.50220299 9.44118023 -0.781878
-18.95961571 13.45847511 10.56656456 -0.708086
-20.04628181 13.32437706 11.76214981 -0.657399
-21.02495956 13.25984573 12.79538345 -0.539774
-21.99013901 13.04294395 13.70705605 -0.416850
-22.89406395 12.92708111 14.51995945 -0.235790
-23.84326553 12.81034279 15.25106430 0.030722
-24.80113411 12.74132252 15.84095955 0.413782
-25.75269890 12.67803192 16.34574318 0.845784
-26.70638657 12.62254333 16.79821587 1.313266
-27.66003799 12.58438206 17.21350670 1.806833
-28.62532234 12.55447006 17.59786415 2.344380
-29.59259605 12.53075504 17.94801331 2.909462
-30.56112099 12.51362133 18.27453995 3.493139
-31.53372002 12.50035858 18.58090591 4.179046
-32.50951004 12.49153709 18.86805534 4.959758
-33.48714447 12.48536873 19.13763428 5.806238
-34.46678543 12.48187733 19.39204979 6.694418
-35.44895554 12.48051357 19.63261414 7.603637
-36.43294907 12.48091698 19.85979843 8.526209
-37.41976929 12.48258305 20.07425690 9.458732
-38.40953445 12.48594379 20.27533913 10.398807
-39.40410614 12.48921204 20.46184921 11.346683
-40.40695953 12.49358463 20.62920952 12.310691
-41.42457199 12.49697781 20.76700592 13.294750
0.84005404 11.58185387 1.59377289 -0.629031
-0.17961442 11.56713104 1.57834625 -0.626332
-1.18509793 11.61868668 1.61406517 -0.628242
-2.17832804 11.65175438 1.68845367 -0.646916
-3.19468617 11.67736721 1.79039574 -0.667737
-4.19924688 11.71579170 1.92649460 -0.689933
-5.18334055 11.72898674 2.11425400 -0.728468
-6.25147915 11.78308487 2.33631897 -0.749317
-7.21094418 11.82728004 2.56439018 -0.761638
-8.26926994 11.87063980 2.87446022 -0.780818
-9.29238129 11.94455242 3.17802238 -0.758480
-10.29290581 11.97660351 3.53849411 -0.754029
-11.32658577 12.04662991 3.96735573 -0.745986
-12.30226707 12.06271553 4.43277931 -0.759076
-13.35141659 12.11638069 5.04264355 -0.783276
-14.33165169 12.19934177 5.69541264 -0.811394
-15.41623783 12.23785973 6.51447868 -0.859270
-16.56282043 12.35325241 7.51643181 -0.885711
-17.71838951 12.42438602 8.60958767 -0.866875
-18.99808121 12.45724487 9.81564426 -0.736253
-20.03427696 12.38506985 10.99058819 -0.683259
-21.09276199 12.21311188 12.18581200 -0.623431
-22.02476501 12.13327980 13.21304703 -0.517733
-22.94709587 11.98575974 14.14220047 -0.375366
-23.90628815 11.85050774 14.91878510 -0.115022
-24.84570313 11.75972748 15.56579208 0.225515
-25.78878593 11.69204617 16.12552834 0.626376
-26.74090385 11.63986015 16.61463165 1.091158
-27.68385506 11.59513283 17.05212021 1.583913
-28.64961052 11.55891514 17.45787811 2.114307
-29.60954475 11.53562546 17.82449341 2.665058
-30.57720184 11.51679707 18.16714096 3.239940
-31.54533195 11.50314331 18.48597336 3.892368
-32.51928329 11.49289131 18.78561592 4.664042
-33.49362183 11.48714066 19.06638718 5.502125
-34.47218704 11.48337078 19.33166122 6.381242
-35.45210648 11.48154068 19.58142090 7.283904
-36.43443680 11.48181343 19.81773376 8.203532
-37.41952896 11.48350811 20.04078102 9.143234
-38.40813065 11.48607635 20.25014305 10.098593
-39.40142059 11.48958015 20.44421768 11.062165
-40.40298462 11.49348927 20.61921883 12.035010
-41.42142105 11.49750328 20.76383400 13.023597
0.78794420 10.53426456 1.27902031 -0.611547
-0.20325026 10.59593678 1.27140427 -0.595245
-1.19309771 10.61232758 1.30754852 -0.612527
-2.22580433 10.62569237 1.35495186 -0.615953
-3.20596695 10.65984917 1.44166756 -0.627494
-4.22285080 10.69064045 1.57729721 -0.648215
-5.23766327 10.71174526 1.72039223 -0.655663
-6.21217871 10.75193596 1.93445396 -0.707268
-7.26502752 10.80657864 2.19921875 -0.734838
-8.26897526 10.83639145 2.46146202 -0.758045
-9.29219913 10.89691734 2.79948425 -0.773799
-10.31802368 10.96366501 3.15682983 -0.779232
-11.35592461 11.00365067 3.54844093 -0.754774
-12.33713818 11.07119274 4.00444794 -0.752446
-13.38626957 11.09656048 4.54882240 -0.772384
-14.36821175 11.13348961 5.14255524 -0.775218
-15.45609665 11.21687603 5.89855576 -0.785642
-16.47609329 11.29861450 6.77713394 -0.839944
-17.67423439 11.36632252 7.94730759 -0.912269
-18.91863441 11.43304729 9.05950642 -0.774914
-20.10392570 11.41919327 10.26664257 -0.653196
-21.12363243 11.31153011 11.55505943 -0.638599
-22.07744026 11.13756943 12.68843460 -0.587531
-23.05010796 10.96524620 13.69877434 -0.451372
-23.95502853 10.86312103 14.54526711 -0.240896
-24.88481331 10.79273319 15.30625916 0.056170
-25.82446289 10.71524334 15.91580772 0.442414
-26.77285576 10.64849758 16.43693161 0.888215
-27.71585846 10.59996796 16.89699936 1.368039
-28.67177200 10.56537342 17.32037735 1.897308
-29.62909317 10.53852272 17.70476151 2.453876
-30.59169960 10.52001095 18.06263542 3.031034
-31.55876350 10.50564957 18.39517975 3.645404
-32.52850723 10.49556637 18.70599365 4.381980
-33.50136185 10.48866081 18.99820518 5.202439
-34.47738647 10.48429394 19.27322388 6.083680
-35.45525742 10.48315716 19.53251457 6.997396
-36.43621445 10.48301315 19.77763748 7.929769
-37.41965485 10.48415184 20.00867462 8.874281
-38.40699387 10.48664474 20.22570038 9.828612
-39.39912415 10.48989391 20.42712402 10.791040
-40.39908218 10.49359798 20.60929298 11.762600
-41.41818237 10.49711132 20.76070023 12.752559
0.78478885 9.55757999 1.07030106 -0.635811
-0.23817742 9.57716560 1.07656288 -0.642981
-1.24045205 9.59391403 1.08043671 -0.626156
-2.24219394 9.63414288 1.11731529 -0.611359
-3.23820448 9.65235996 1.18455887 -0.608495
-4.25062704 9.67247868 1.28894424 -0.620297
-5.25917816 9.71704483 1.42271805 -0.634520
-6.24608946 9.73130703 1.59801483 -0.647104
-7.27527380 9.75229549 1.83162117 -0.689111
