//X Y Z C2M_signed_distances
-12.99109459 -10.37881947 4.04948807 -0.762535
-14.12080860 -10.33556747 4.63728714 -0.779928
-15.14520645 -10.33541775 5.27603149 -0.786978
-16.32045746 -10.37951756 6.09157562 -0.774020
-17.46163177 -10.46062374 6.99418926 -0.730505
-18.75213242 -10.58715343 8.25232506 -0.723338
-19.84107780 -10.67577076 9.42198944 -0.663029
-20.87744713 -10.71183681 10.70666981 -0.605653
-21.71688080 -10.68329334 11.82674789 -0.577688
-22.53320694 -10.60292912 12.85780525 -0.535239
-23.35817909 -10.58970833 13.78766060 -0.395333
-24.20797920 -10.59030437 14.56757927 -0.146886
-25.08172798 -10.56995201 15.23242569 0.174867
-25.98031998 -10.55231190 15.80287743 0.571462
-26.89074326 -10.53940582 16.30331421 1.015933
-27.81075478 -10.52612877 16.76016998 1.494524
-28.74335098 -10.51407814 17.18438339 2.012536
-29.68495750 -10.50703621 17.57803726 2.557078
-30.63660049 -10.49995422 17.94451904 3.124048
-31.59118652 -10.49537754 18.28617096 3.718895
-32.55416489 -10.49246025 18.60787201 4.434011
-33.52115250 -10.49038124 18.90908241 5.239276
-34.49102783 -10.48931885 19.19306564 6.108138
-35.46527100 -10.48948574 19.46202660 7.013770
-36.44252777 -10.49052143 19.71621323 7.939821
-37.42209625 -10.49180603 19.95664024 8.878789
-38.40673065 -10.49455357 20.18359184 9.829605
-39.39742661 -10.49719715 20.39438438 10.790119
-40.39952087 -10.50059319 20.58370209 11.763600
-41.41777039 -10.50302410 20.73893166 12.752422
0.20577359 -11.62494087 1.69855690 -0.725169
-0.79249173 -11.59012985 1.68529892 -0.714039
-1.80789328 -11.53088284 1.70913315 -0.720529
-2.81141210 -11.52698803 1.78169632 -0.733356
-3.82800221 -11.52577496 1.88709831 -0.748808
-4.84485579 -11.50872803 2.00943947 -0.751970
-5.84817982 -11.45991707 2.16695404 -0.761554
-6.89214420 -11.45845413 2.38384628 -0.780636
-7.89744091 -11.46623993 2.62001801 -0.781062
-8.95464802 -11.46910191 2.89873695 -0.766234
-9.96199512 -11.45131016 3.19847679 -0.754316
-10.98094940 -11.42097855 3.58019447 -0.765863
-12.04095745 -11.35534096 3.99609756 -0.762410
-13.13175678 -11.36063385 4.51699638 -0.756627
-14.13212490 -11.41355324 5.13205814 -0.774257
-15.29810715 -11.42105103 5.87921143 -0.775068
-16.38847351 -11.45145130 6.71865463 -0.788062
-17.67092514 -11.62494850 7.84925556 -0.739559
-18.82547760 -11.75940514 8.93517971 -0.629415
-19.89921379 -11.75810623 10.16812038 -0.599516
-20.78330040 -11.77527714 11.31762314 -0.578446
-21.61436081 -11.71969414 12.37813091 -0.547533
-22.40084457 -11.69400787 13.35447979 -0.482144
-23.27726555 -11.63911343 14.19099236 -0.285961
-24.13416290 -11.59584904 14.86806679 -0.008934
-25.02725029 -11.57493496 15.48180103 0.339820
-25.93094063 -11.56030655 16.00856018 0.755124
-26.84741974 -11.54132175 16.48270607 1.212290
-27.77593613 -11.52670383 16.92024231 1.703685
-28.71578979 -11.51628780 17.32520103 2.222577
-29.66240692 -11.50818348 17.70092773 2.762997
-30.61690903 -11.49919415 18.05205917 3.327785
-31.57780266 -11.49531841 18.38069916 3.960177
-32.54234314 -11.49140453 18.68881035 4.710646
-33.51239014 -11.48945045 18.97929001 5.535749
-34.48521423 -11.48863506 19.25307274 6.403886
-35.46128464 -11.48850346 19.51228714 7.299126
-36.43956375 -11.48928070 19.75775909 8.212282
-37.42233658 -11.49146748 19.99026108 9.148073
-38.40729904 -11.49388409 20.20884514 10.098950
-39.39999390 -11.49680042 20.41241074 11.061498
-40.40246201 -11.49979305 20.59435844 12.034945
-41.42186737 -11.50267029 20.74289131 13.024200
-0.81619716 -12.61793613 2.08154678 -0.762547
-1.83638144 -12.62041664 2.12861633 -0.766359
-2.84337926 -12.58232975 2.18365097 -0.765152
-3.85260940 -12.54026508 2.27973747 -0.776492
-4.89198351 -12.52123928 2.41032791 -0.780047
-5.89288330 -12.55212593 2.59414673 -0.782090
-6.94122458 -12.53933334 2.79738426 -0.767837
-7.96114969 -12.51664734 3.02026558 -0.756795
-8.96693420 -12.45439911 3.29336548 -0.758168
-10.02093506 -12.41092396 3.63947487 -0.768046
-11.06485176 -12.44075298 4.03479385 -0.739022
-12.09338856 -12.46291447 4.53108406 -0.766338
-13.19840050 -12.44621944 5.11315441 -0.776423
-14.25885868 -12.44571877 5.75156212 -0.782394
-15.39146042 -12.51347828 6.57411385 -0.796087
-16.56238174 -12.64552498 7.55307388 -0.775325
-17.77248001 -12.74201012 8.62607002 -0.699421
-18.87239456 -12.81948280 9.73306942 -0.605613
-19.82659149 -12.86116123 10.90978241 -0.582080
-20.69081116 -12.78580952 11.94486427 -0.537894
-21.48350334 -12.74591064 12.92244530 -0.498111
-22.33678246 -12.66371632 13.78836441 -0.370392
-23.17010498 -12.61605740 14.53258514 -0.168098
-24.07933807 -12.59672356 15.19392586 0.156700
-24.96726418 -12.59241581 15.72900391 0.541175
-25.88335419 -12.56401634 16.21905518 0.970150
-26.80418015 -12.54582405 16.66807175 1.428245
-27.74368668 -12.52999401 17.08565140 1.920010
-28.68708992 -12.51786804 17.46913528 2.449058
-29.64029121 -12.50640011 17.82829094 3.002319
-30.59828377 -12.50075531 18.16400719 3.574240
-31.56356812 -12.49371529 18.47854042 4.238262
-32.53148651 -12.49130344 18.77378464 5.001714
-33.50378036 -12.48838139 19.05250549 5.835977
-34.47915268 -12.48714924 19.31576538 6.715117
-35.45708466 -12.48736095 19.56506348 7.617102
-36.43823242 -12.48874474 19.80143356 8.534914
-37.42132950 -12.49067020 20.02475739 9.462586
-38.40870285 -12.49324894 20.23549652 10.399426
-39.40248871 -12.49653435 20.43103218 11.346239
-40.40541458 -12.49949837 20.60570145 12.309751
-41.42666626 -12.50280285 20.74697113 13.297189
-0.86527163 -13.67701244 2.51819611 -0.781699
-1.86113441 -13.63909245 2.53375816 -0.769203
-2.87105370 -13.61464596 2.61175537 -0.776530
-3.90821457 -13.61564636 2.72642517 -0.773806
-4.92604637 -13.60866642 2.86272049 -0.766919
-5.96384811 -13.56609631 3.01114273 -0.754474
-6.96632242 -13.53433609 3.21679306 -0.749892
-8.00963783 -13.50140476 3.47501755 -0.744280
-9.01566792 -13.51257515 3.80421257 -0.764651
-10.06779766 -13.48890209 4.17982674 -0.761433
-11.12927723 -13.45373154 4.60416031 -0.774974
-12.19226933 -13.44209862 5.12184238 -0.778571
-13.28921795 -13.52692699 5.77228928 -0.773668
-14.37336159 -13.58674335 6.51175404 -0.795491
-15.53078938 -13.67106342 7.43466759 -0.805624
-16.73053932 -13.82779217 8.41575718 -0.701269
-17.80192947 -13.91903114 9.47857571 -0.642329
-18.85780525 -13.93812943 10.65994644 -0.601638
-19.68872452 -13.90391254 11.59267902 -0.535583
-20.53795052 -13.81323051 12.60199547 -0.524469
-21.36199570 -13.70953941 13.46569443 -0.449611
-22.20970917 -13.66904163 14.25721359 -0.276258
-23.10014725 -13.65279388 14.92855644 0.007415
-24.00186920 -13.61934280 15.48828506 0.359252
-24.91467476 -13.57765388 15.97929192 0.756755
-25.83546448 -13.56291866 16.43662643 1.195308
-26.76621437 -13.54415226 16.85829353 1.669440
-27.71071625 -13.52890205 17.25239372 2.175751
-28.66009331 -13.51543236 17.61716461 2.701964
-29.61828232 -13.50691700 17.95930862 3.248714
-30.58128738 -13.49868488 18.27882004 3.840159
-31.54893875 -13.49370670 18.57929802 4.552292
-32.52085114 -13.48898983 18.86169815 5.343695
-33.49551392 -13.48722458 19.12841034 6.182588
-34.47336578 -13.48649216 19.38084602 7.051217
-35.45365524 -13.48656082 19.61984253 7.941340
-36.43607712 -13.48780537 19.84632301 8.857796
-37.42155075 -13.48990440 20.06085777 9.788905
-38.41047287 -13.49307156 20.26272011 10.727794
-39.40433884 -13.49609375 20.45015907 11.673746
-40.41022491 -13.49958801 20.61724663 12.632157
-41.43029785 -13.50279427 20.75052071 13.603109
41.49926758 41.49703979 20.81472778 28.698818
40.49919128 41.49695969 20.81469727 28.000782
39.49908066 41.49679184 20.81454849 27.315100
38.49898148 41.49652863 20.81427002 26.629717
37.49888229 41.49602890 20.81387329 25.945212
36.49875259 41.49527359 20.81332588 25.276663
35.49856567 41.49417496 20.81255150 24.629456
34.49841690 41.49293518 20.81156540 23.988520
33.49823380 41.49128342 20.81034470 23.347256
32.49815750 41.48965836 20.80898476 22.716610
31.49794388 41.48742294 20.80735016 22.112162
30.49785995 41.48511887 20.80549622 21.517933
29.49774742 41.48250961 20.80350113 20.923454
28.49793053 41.48014069 20.80148315 20.342249
27.49782181 41.47724915 20.79931641 19.790918
26.49764824 41.47443771 20.79688454 19.245871
25.49763870 41.47099304 20.79417992 18.701445
24.49749374 41.46749496 20.79127312 18.184370
23.49766350 41.46384811 20.78817177 17.690264
22.49772072 41.45991135 20.78515053 17.195976
21.49811172 41.45705032 20.78249359 16.718977
20.49840164 41.45433044 20.78012657 16.277027
19.49743652 41.45038223 20.77697372 15.835653
18.49774551 41.44599915 20.77321815 15.406382
17.49824715 41.44269943 20.77003860 15.017793
16.49785805 41.43852615 20.76670837 14.631452
15.49769115 41.43467712 20.76297951 14.259518
14.49773788 41.43031693 20.75911713 13.927663
13.49796486 41.42643738 20.75546837 13.598166
12.49804211 41.42281723 20.75205803 13.292494
11.49752998 41.41872025 20.74825668 13.020103
10.49856472 41.41523743 20.74495125 12.749169
9.49766731 41.41215134 20.74191284 12.518847
8.49810123 41.40848160 20.73864365 12.305654
7.49794531 41.40548325 20.73587227 12.101519
6.49883938 41.40353394 20.73396492 11.946271
5.49818611 41.40185928 20.73248672 11.794252
4.49796104 41.39978409 20.73048210 11.673526
3.49775052 41.39753723 20.72841454 11.580824
2.49775028 41.39573669 20.72669220 11.494020
1.49810696 41.39452744 20.72565651 11.457579
0.49817297 41.39387894 20.72518158 11.426762
41.49919128 40.49695587 20.81455994 28.000857
40.49898148 40.49675369 20.81431961 27.284788
39.49875641 40.49643326 20.81371689 26.586962
38.49849319 40.49584198 20.81266975 25.901043
37.49807739 40.49485779 20.81111336 25.214911
36.49758530 40.49340439 20.80892372 24.529909
35.49711609 40.49170685 20.80600929 23.862690
34.49657440 40.48950577 20.80239296 23.216646
33.49616623 40.48728943 20.79811668 22.574713
32.49564743 40.48413467 20.79308319 21.932030
31.49526215 40.48122025 20.78740501 21.305128
30.49489021 40.47793579 20.78116798 20.704596
29.49476624 40.47455978 20.77446175 20.109318
28.49441338 40.47034454 20.76721191 19.513643
27.49425125 40.46638489 20.75946426 18.940357
26.49399567 40.46200180 20.75119972 18.392521
25.49370575 40.45796204 20.74239159 17.846125
24.49368477 40.45375824 20.73320961 17.306648
23.49374390 40.44990921 20.72384071 16.803213
22.49412155 40.44610214 20.71451187 16.308890
21.49445152 40.44136810 20.70549011 15.815563
20.49404907 40.43624878 20.69616699 15.356857
19.49353409 40.43188477 20.68588829 14.914932
18.49386597 40.42823792 20.67535400 14.474951
17.49395752 40.42351913 20.66484070 14.070512
16.49407959 40.41946030 20.65428925 13.684060
15.49372101 40.41555405 20.64339638 13.299829
14.49410820 40.41215134 20.63246536 12.958747
13.49410057 40.40847778 20.62171173 12.628939
12.49428558 40.40436935 20.61091042 12.307497
11.49470520 40.40178680 20.60082626 12.033252
10.49451828 40.39832306 20.59098053 11.761182
9.49505234 40.39472580 20.58146858 11.516218
8.49473763 40.39207840 20.57235718 11.303495
7.49574661 40.38901901 20.56405258 11.093327
6.49639702 40.38615417 20.55735207 10.931756
5.49612904 40.38277817 20.55113792 10.777796
4.49616337 40.38110352 20.54560661 10.649970
3.49618459 40.38031006 20.54078865 10.558557
2.49670696 40.37937164 20.53675652 10.470356
1.49692535 40.37808609 20.53370857 10.432224
0.49758518 40.37771988 20.53228378 10.401642
41.49905014 39.49686813 20.81427574 27.315220
40.49868393 39.49654770 20.81360626 26.587073
39.49819565 39.49594498 20.81218147 25.870045
38.49747849 39.49493408 20.80978966 25.171881
37.49671936 39.49350357 20.80628777 24.485083
36.49582291 39.49146271 20.80150223 23.797775
35.49490356 39.48907471 20.79536438 23.112324
34.49410248 39.48641968 20.78797913 22.446636
33.49322128 39.48302078 20.77931404 21.801170
32.49245071 39.47985458 20.76936913 21.158093
31.49187088 39.47606277 20.75837517 20.515371
30.49132729 39.47228241 20.74644661 19.893440
29.49063873 39.46768951 20.73340607 19.294911
28.49026299 39.46359253 20.71939659 18.698628
27.48991013 39.45906448 20.70462799 18.105139
26.48964119 39.45487976 20.68919754 17.542608
25.48947334 39.45046997 20.67317581 16.995657
24.48955154 39.44629288 20.65674019 16.449022
23.48949432 39.44184494 20.64005280 15.921349
22.48976707 39.43761444 20.62322426 15.425278
21.48945236 39.43309021 20.60586166 14.929630
20.48918915 39.42874146 20.58775330 14.447315
19.48986053 39.42518997 20.56971550 14.004031
18.48955536 39.42124557 20.55142403 13.562205
17.48965645 39.41784668 20.53266716 13.135906
16.48960686 39.41404343 20.51374245 12.748170
15.49018860 39.41097260 20.49501419 12.362431
14.49014282 39.40798950 20.47645187 12.002237
13.49017334 39.40481567 20.45757866 11.672556
12.49075985 39.40267944 20.43935585 11.344923
11.49113274 39.39952850 20.42164421 11.059878
10.49117947 39.39665985 20.40426064 10.788132
9.49152088 39.39438248 20.38756752 10.530394
8.49226665 39.39222336 20.37198067 10.317598
7.49287033 39.39054871 20.35784531 10.105898
6.49325466 39.38821411 20.34491920 9.936475
5.49391413 39.38686752 20.33371353 9.784482
4.49466658 39.38539886 20.32404327 9.649676
3.49530458 39.38391876 20.31603241 9.557543
2.49551225 39.38317490 20.30960846 9.467736
1.49637318 39.38289642 20.30497551 9.428744
0.49715215 39.38211441 20.30216408 9.397709
41.49880219 38.49678802 20.81389999 26.629858
40.49810791 38.49623871 20.81250000 25.901142
39.49711990 38.49526596 20.80974197 25.171948
38.49602127 38.49388504 20.80534172 24.453350
37.49463654 38.49181366 20.79907799 23.754452
36.49335098 38.48932648 20.79075241 23.066443
35.49219894 38.48656845 20.78049088 22.378273
34.49093246 38.48310852 20.76831055 21.692394
33.48982620 38.47964859 20.75425339 21.028626
32.48900604 38.47578049 20.73860550 20.383951
31.48808670 38.47195053 20.72142410 19.740009
30.48707771 38.46737671 20.70259857 19.097754
29.48649216 38.46318436 20.68233490 18.482092
28.48605919 38.45888519 20.66101646 17.885267
27.48562050 38.45468140 20.63863564 17.288540
26.48539162 38.45027924 20.61540031 16.700779
25.48531914 38.44617081 20.59152603 16.147528
24.48524857 38.44221115 20.56713104 15.600689
23.48538399 38.43819046 20.54213142 15.055829
22.48506927 38.43403625 20.51656151 14.545417
21.48510361 38.43045425 20.49037933 14.050444
20.48569870 38.42763138 20.46406555 13.557016
19.48539543 38.42392349 20.43731689 13.097559
18.48565292 38.42084503 20.41019630 12.656483
17.48571777 38.41806412 20.38287354 12.217088
16.48629379 38.41601944 20.35551071 11.819840
15.48653793 38.41371918 20.32834625 11.434492
14.48640156 38.41117859 20.30082512 11.056378
13.48725891 38.40990829 20.27382851 10.725643
12.48757172 38.40788651 20.24738693 10.397079
11.48749447 38.40629578 20.22118378 10.096531
10.48850155 38.40549088 20.19603348 9.827027
9.48880005 38.40422440 20.17198181 9.560660
8.48986244 38.40360641 20.14959145 9.344986
7.49051142 38.40261459 20.12892342 9.133984
6.49105501 38.40180206 20.10986900 8.955648
5.49270916 38.40082550 20.09317017 8.804285
4.49303961 38.40015793 20.07913589 8.663750
3.49419641 38.40002060 20.06748772 8.572621
2.49531913 38.39975739 20.05857086 8.482314
1.49609983 38.39940262 20.05213356 8.440918
0.49698290 38.39936829 20.04830551 8.410686
41.49832916 37.49665833 20.81339645 25.945376
40.49707794 37.49581528 20.81083679 25.214968
39.49565125 37.49444962 20.80615997 24.485087
38.49390411 37.49262238 20.79904556 23.754591
37.49214554 37.49011230 20.78923035 23.033987
36.49045563 37.48735428 20.77666664 22.334831
35.48877716 37.48390579 20.76140594 21.645630
34.48732758 37.48035049 20.74360466 20.956421
33.48621750 37.47650528 20.72358704 20.271078
32.48507309 37.47269821 20.70154190 19.610123
31.48387718 37.46835709 20.67732239 18.965269
30.48304749 37.46417618 20.65109062 18.320788
29.48242378 37.46007156 20.62328720 17.681622
28.48185539 37.45586014 20.59408951 17.073010
27.48158836 37.45185852 20.56369209 16.476273
26.48144913 37.44804382 20.53227425 15.879732
25.48146248 37.44443893 20.50008011 15.302406
24.48139763 37.44067383 20.46709061 14.754625
23.48125267 37.43741989 20.43330574 14.208078
22.48146248 37.43441772 20.39873314 13.672589
21.48199081 37.43181229 20.36386681 13.175547
20.48178864 37.42901230 20.32860184 12.680987
19.48219109 37.42699051 20.29275322 12.198127
18.48238945 37.42507553 20.25654030 11.755920
17.48282814 37.42330551 20.22006607 11.316094
16.48331070 37.42216873 20.18389511 10.896705
15.48315811 37.42053986 20.14716148 10.511935
14.48424625 37.42047882 20.11091423 10.129241
13.48434448 37.41986084 20.07513809 9.785593
12.48471737 37.41947937 20.03955841 9.458945
11.48577404 37.42000580 20.00522804 9.144237
10.48601532 37.42015839 19.97193909 8.875306
9.48736000 37.42086792 19.94031906 8.607983
8.48794842 37.42123032 19.91054535 8.383369
7.48876762 37.42148209 19.88262749 8.174271
6.49037457 37.42240143 19.85760689 7.987890
5.49086189 37.42319107 19.83546638 7.838737
4.49292374 37.42367554 19.81661606 7.694729
3.49374914 37.42398071 19.80139351 7.602874
2.49492574 37.42432022 19.78949928 7.513175
1.49641371 37.42452240 19.78126907 7.469535
0.49746940 37.42526627 19.77691269 7.440249
41.49757385 36.49650574 20.81269646 25.276899
40.49560165 36.49529648 20.80850601 24.529961
39.49352264 36.49358368 20.80125999 23.797733
38.49140930 36.49131775 20.79073334 23.066565
37.48914337 36.48855209 20.77671814 22.334831
36.48705673 36.48521042 20.75918198 21.612522
35.48513794 36.48167801 20.73825645 20.913012
34.48369980 36.47792816 20.71438026 20.223454
33.48231888 36.47417831 20.68790436 19.533844
32.48089218 36.46991348 20.65871811 18.848889
31.47985268 36.46586227 20.62700272 18.191288
30.47898293 36.46180344 20.59313583 17.546620
29.47849083 36.45803833 20.55743980 16.902365
28.47809982 36.45421982 20.52007294 16.267584
27.47793961 36.45072174 20.48130989 15.665493
26.47785759 36.44728088 20.44138336 15.069080
25.47792625 36.44412613 20.40043640 14.474013
24.47804451 36.44141006 20.35853767 13.910882
23.47825623 36.43875885 20.31567574 13.364929
22.47866249 36.43678284 20.27216339 12.819702
21.47883987 36.43489075 20.22807121 12.302753
20.47942162 36.43335724 20.18329048 11.809756
19.47962952 36.43213654 20.13807487 11.316987
18.48007393 36.43149567 20.09238434 10.859183
17.48079109 36.43137741 20.04663658 10.421335
16.48069954 36.43068314 20.00022316 9.985323
15.48195171 36.43167496 19.95420837 9.596961
14.48214245 36.43226242 19.90859604 9.215238
13.48289871 36.43321991 19.86326599 8.853217
12.48350143 36.43528366 19.81894875 8.530028
11.48419762 36.43659210 19.77541161 8.207372
10.48553085 36.43870544 19.73383141 7.934193
9.48599815 36.44087601 19.69407654 7.669516
8.48698616 36.44285965 19.65626907 7.434060
7.48850632 36.44557190 19.62146759 7.229117
6.48946428 36.44744492 19.58975220 7.034646
5.49155474 36.44980240 19.56213379 6.888737
4.49222326 36.45136261 19.53853989 6.743197
3.49406743 36.45310593 19.51922035 6.650818
2.49568605 36.45404053 19.50445938 6.562732
1.49651110 36.45522308 19.49438286 6.517121
0.49845719 36.45519257 19.48885155 6.487471
41.49644089 35.49635696 20.81176567 24.629755
40.49368286 35.49475861 20.80543137 23.862623
39.49119186 35.49278641 20.79503441 23.112444
38.48843002 35.49014282 20.78040695 22.378218
37.48587799 35.48688126 20.76150322 21.645769
36.48338318 35.48336411 20.73833275 20.913040
35.48156357 35.47970200 20.71138000 20.189728
34.47984695 35.47608948 20.68113327 19.490618
33.47808075 35.47187424 20.64747429 18.800158
32.47684860 35.46791840 20.61073303 18.110153
31.47589874 35.46404648 20.57131195 17.427021
30.47533226 35.46043396 20.52956009 16.773367
29.47476196 35.45669937 20.48563576 16.128870
28.47462082 35.45356369 20.43986130 15.485094
27.47461891 35.45043182 20.39249992 14.857161
26.47484207 35.44785690 20.34377289 14.259985
25.47511864 35.44547272 20.29384041 13.664581
24.47534180 35.44323349 20.24269867 13.075044
23.47587585 35.44175720 20.19056702 12.524111
22.47638512 35.44047546 20.13766289 11.979702
21.47705269 35.43940353 20.08380890 11.439666
20.47741890 35.43911743 20.02922821 10.941390
19.47823334 35.43908691 19.97394371 10.450503
18.47901726 35.43960953 19.91839027 9.968755
17.47921371 35.44004822 19.86207771 9.530246
16.48045540 35.44213104 19.80587006 9.095968
15.48089790 35.44398117 19.74979401 8.687543
14.48202705 35.44626999 19.69406319 8.309436
13.48239326 35.44928741 19.63892746 7.934882
12.48354816 35.45218658 19.58470154 7.610140
11.48459625 35.45647049 19.53234291 7.292000
10.48516750 35.45988846 19.48128128 7.005992
9.48665142 35.46363068 19.43258095 6.746140
8.48787975 35.46826553 19.38710213 6.502360
7.48902225 35.47219086 19.34480095 6.301760
6.49063826 35.47657776 19.30660248 6.104954
5.49196529 35.47994995 19.27279282 5.960585
4.49376822 35.48320389 19.24402237 5.818401
3.49507213 35.48544693 19.22043991 5.723161
2.49646211 35.48810196 19.20269966 5.638744
1.49851739 35.48913193 19.19044495 5.590810
0.49952984 35.49030304 19.18411827 5.563040
41.49507904 34.49620056 20.81064034 23.988716
40.49155807 34.49433899 20.80168533 23.216766
39.48831558 34.49196243 20.78749847 22.446667
38.48521423 34.48894119 20.76810074 21.692604
37.48209000 34.48536301 20.74360657 20.956341
36.47985458 34.48181534 20.71448517 20.223570
35.47767639 34.47821045 20.68122101 19.490654
34.47560883 34.47408295 20.64387512 18.765844
33.47418594 34.47032547 20.60274124 18.067124
32.47298813 34.46646118 20.55829620 17.376976
31.47233009 34.46302032 20.51094246 16.687445
30.47163773 34.45933914 20.46090698 16.006312
29.47156906 34.45645523 20.40852928 15.356564
28.47163773 34.45361328 20.35417366 14.713040
27.47182655 34.45123672 20.29793549 14.070089
26.47241402 34.44921875 20.24020767 13.452191
25.47274971 34.44748688 20.18095207 12.857462
24.47348785 34.44638062 20.12031364 12.263663
23.47424316 34.44559860 20.05851364 11.685848
22.47519684 34.44499207 19.99556923 11.142295
21.47563744 34.44535828 19.93157196 10.600112
20.47687721 34.44589996 19.86656952 10.076863
19.47755814 34.44708252 19.80061913 9.588161
18.47870636 34.44859314 19.73397446 9.100601
17.47977448 34.45140457 19.66715431 8.647024
16.48073769 34.45426941 19.60010719 8.215584
15.48231506 34.45827103 19.53372955 7.790635
14.48236084 34.46244431 19.46713448 7.414167
13.48410130 34.46686172 19.40107536 7.042570
12.48536110 34.47276306 19.33708763 6.706387
11.48610020 34.47772980 19.27438164 6.393585
10.48728561 34.48411942 19.21379852 6.098293
9.48857403 34.49027252 19.15575218 5.846421
8.49030781 34.49618530 19.10136795 5.598261
7.49187994 34.50253296 19.05145645 5.404044
6.49332809 34.50825500 19.00626945 5.211778
5.49454021 34.51409531 18.96630669 5.068122
4.49568892 34.51813507 18.93132782 4.932449
3.49768949 34.52264786 18.90322495 4.837190
2.49962592 34.52523422 18.88226318 4.756652
1.50050116 34.52822495 18.86849785 4.709428
41.49341202 33.49603271 20.80930138 23.347447
40.48914337 33.49395370 20.79727173 22.574690
39.48505020 33.49107361 20.77865028 21.801331
38.48139572 33.48780441 20.75382805 21.028635
37.47853088 33.48418427 20.72342682 20.271210
36.47587585 33.48050690 20.68800354 19.533842
35.47352600 33.47659302 20.64773560 18.800350
34.47164917 33.47272110 20.60291672 18.067089
33.47024536 33.46898270 20.55409813 17.342037
32.46936417 33.46548080 20.50170898 16.644230
31.46873856 33.46205521 20.44611740 15.954554
30.46861076 33.45923233 20.38762856 15.265667
29.46874809 33.45664597 20.32668114 14.588275
28.46903038 33.45427322 20.26334763 13.941904
27.46980476 33.45259857 20.19808960 13.299888
26.47042465 33.45124435 20.13100052 12.659449
25.47125244 33.45029831 20.06203079 12.052275
24.47229004 33.44972610 19.99141502 11.459610
23.47352600 33.44983673 19.91947746 10.868071
22.47454834 33.45069122 19.84604645 10.308111
21.47609138 33.45173264 19.77124786 9.768404
20.47667122 33.45322418 19.69481277 9.229597
19.47866058 33.45623016 19.61775589 8.731951
18.47983551 33.45988464 19.54000473 8.248922
17.48133278 33.46380997 19.46153069 7.773723
16.48311424 33.46889496 19.38319016 7.346886
15.48430824 33.47358704 19.30461121 6.922935
14.48571968 33.48015213 19.22677803 6.534667
13.48715305 33.48797989 19.15003967 6.172655
12.48859215 33.49452972 19.07434273 5.823906
11.49006271 33.50286865 19.00091743 5.523146
10.49166870 33.51103973 18.93002319 5.225916
9.49289227 33.52001953 18.86248589 4.983252
8.49454880 33.52849960 18.79852486 4.746355
7.49649763 33.53665161 18.73983955 4.554549
6.49789286 33.54453659 18.68691444 4.376496
5.49911690 33.55130386 18.63973045 4.234855
4.50028801 33.55917358 18.59960556 4.113639
3.50192142 33.56422424 18.56645203 4.021302
2.50369143 33.56881714 18.54181099 3.950320
1.50428522 33.57106018 18.52550125 3.904023
41.49166489 32.49596786 20.80779839 22.716797
40.48612976 32.49337006 20.79210854 21.932078
39.48152542 32.49044037 20.76849556 21.158056
38.47784042 32.48691177 20.73795128 20.384171
37.47443008 32.48317337 20.70123291 19.610218
36.47171402 32.47919846 20.65880013 18.849098
35.46948624 32.47536850 20.61114502 18.110294
34.46773911 32.47169113 20.55865479 17.377030
33.46655655 32.46799469 20.50178337 16.644076
32.46607971 32.46481323 20.44122696 15.919191
31.46576500 32.46194077 20.37723160 15.222728
30.46600342 32.45940399 20.31016159 14.534251
29.46643066 32.45718765 20.24026299 13.846278
28.46725273 32.45561218 20.16783905 13.173462
27.46818542 32.45453262 20.09319305 12.531011
26.46914482 32.45366669 20.01616096 11.890412
25.47046089 32.45326996 19.93696213 11.255023
24.47200966 32.45380020 19.85592842 10.658245
23.47380066 32.45479584 19.77320862 10.069027
22.47515297 32.45630264 19.68861389 9.483655
21.47677612 32.45889282 19.60223007 8.941197
20.47869682 32.46268845 19.51437950 8.407662
19.48091316 32.46662903 19.42539787 7.884502
18.48242760 32.47142792 19.33544540 7.406273
17.48475266 32.47787476 19.24492455 6.933140
16.48682594 32.48434830 19.15405846 6.492723
15.48790169 32.49259186 19.06279755 6.080158
14.49133301 32.50062943 18.97239494 5.679856
13.49252605 32.50968552 18.88346863 5.330336
12.49460125 32.52055359 18.79617882 4.987693
11.49632072 32.53063583 18.71083450 4.695463
10.49803543 32.54214478 18.62909698 4.418319
9.49995995 32.55294418 18.55077171 4.181217
8.50119019 32.56465149 18.47710419 3.968905
7.50332737 32.57534790 18.40857697 3.788727
6.50457525 32.58527374 18.34654045 3.636068
5.50593901 32.59527206 18.29187775 3.509989
4.50778866 32.60363388 18.24571037 3.410229
3.50883412 32.61196518 18.20877075 3.331660
2.50764966 32.61704636 18.17893219 3.274856
1.51060355 32.62074280 18.15899849 3.235647
0.50973308 32.62302780 18.14994049 3.216728
41.48963547 31.49579430 20.80605316 22.112623
40.48283768 31.49308777 20.78621674 21.305039
39.47821426 31.48983765 20.75731659 20.515707
38.47355652 31.48618507 20.72066498 19.739998
37.47024155 31.48206520 20.67693329 18.965542
36.46767807 31.47837067 20.62719154 18.191740
35.46557236 31.47456169 20.57186508 17.427290
34.46396255 31.47078514 20.51128578 16.687082
33.46332550 31.46755409 20.44621658 15.954670
32.46300125 31.46459198 20.37721443 15.222695
31.46326256 31.46198273 20.30457687 14.498067
30.46377754 31.45991516 20.22858047 13.803540
29.46477318 31.45821953 20.14947701 13.116519
28.46608543 31.45732498 20.06775475 12.430673
27.46709633 31.45638657 19.98301125 11.763336
26.46885109 31.45649529 19.89566231 11.124677
25.47064590 31.45717812 19.80585861 10.487446
24.47290611 31.45844460 19.71386337 9.861566
23.47444344 31.46029282 19.61942482 9.273642
22.47737694 31.46347427 19.52310944 8.690563
21.47929573 31.46732521 19.42471886 8.121560
20.48228836 31.47208595 19.32471085 7.593786
19.48419189 31.47811317 19.22295189 7.069681
18.48728943 31.48497581 19.11972237 6.578730
17.49016571 31.49249077 19.01593971 6.115962
16.49264717 31.50256348 18.91203117 5.664238
15.49528217 31.51205063 18.80733299 5.265970
14.49767399 31.52370644 18.70297432 4.878468
13.50102425 31.53552818 18.60057259 4.536574
12.50326157 31.54791832 18.50034714 4.220381
11.50536728 31.56278229 18.40301323 3.941119
10.50785732 31.57539940 18.30803299 3.699217
9.50998783 31.59041405 18.21869469 3.486879
8.51220131 31.60462570 18.13452721 3.314893
7.51285982 31.61919785 18.05631065 3.154418
6.51417923 31.63246918 17.98426437 3.025688
5.51546049 31.64415169 17.92040634 2.905559
4.51760006 31.65533638 17.86740112 2.815575
3.51724267 31.66366196 17.82464600 2.734141
2.51747251 31.67259598 17.79213715 2.682114
1.51517940 31.67771721 17.76781273 2.642979
0.51759934 31.67980003 17.75567055 2.625605
41.48712158 30.49572182 20.80399704 21.518221
40.47993851 30.49276543 20.77981377 20.704897
39.47406006 30.48955727 20.74530029 19.893747
38.46936417 30.48525620 20.70182037 19.098128
37.46611404 30.48157692 20.65087318 18.321325
36.46361923 30.47766495 20.59349251 17.547182
35.46154022 30.47375298 20.52998543 16.773218
34.46067429 30.47038460 20.46115494 16.006493
33.46020889 30.46736526 20.38766098 15.265525
32.46043777 30.46455002 20.30987930 14.534002
31.46119308 30.46253777 20.22831154 13.803617
30.46217155 30.46059418 20.14304924 13.079683
29.46391106 30.45982361 20.05465698 12.388225
28.46507645 30.45869637 19.96268082 11.702714
27.46735191 30.45912361 19.86764526 11.019893
26.46921730 30.45966721 19.76946831 10.361226
25.47221565 30.46128464 19.66859245 9.727258
24.47414970 30.46348763 19.56472397 9.094751
23.47787094 30.46690750 19.45836639 8.485043
22.48046684 30.47135162 19.34980011 7.906972
21.48356056 30.47657776 19.23851585 7.333218
20.48695374 30.48265648 19.12484360 6.791965
19.49079132 30.49022675 19.00960541 6.279432
18.49402809 30.49985123 18.89274788 5.776185
17.49773598 30.51021385 18.77435112 5.327323
16.50132942 30.52050591 18.65504456 4.892391
15.50508022 30.53452873 18.53633308 4.499272
14.50802803 30.54888153 18.41756248 4.144929
13.51286030 30.56379128 18.30009651 3.821048
12.51547050 30.58011818 18.18539047 3.553711
11.51846123 30.59569931 18.07296371 3.304986
10.52159691 30.61551666 17.96647072 3.101382
9.52409840 30.63242912 17.86414909 2.894950
8.52568722 30.64993858 17.76786423 2.731735
7.52825594 30.66730499 17.67872047 2.568735
6.52739143 30.68404007 17.59618378 2.446505
5.52985668 30.70018959 17.52285194 2.326467
4.53043222 30.71402359 17.46214485 2.241924
3.53011847 30.72558975 17.41293716 2.160204
2.52783251 30.73318291 17.37439346 2.110044
1.52696073 30.74251175 17.34918594 2.071649
0.52438080 30.74758148 17.33543968 2.057530
41.48460007 29.49561882 20.80182648 20.923811
40.47657776 29.49289513 20.77302933 20.109779
39.46977615 29.48876953 20.73232841 19.295443
38.46518326 29.48507690 20.68174744 18.482836
37.46191025 29.48094177 20.62329483 17.682140
36.45931625 29.47698784 20.55769730 16.902393
35.45816040 29.47352600 20.48587418 16.129208
34.45733643 29.47016907 20.40851974 15.356344
33.45760345 29.46722031 20.32622910 14.587984
32.45847702 29.46516228 20.23958778 13.846336
31.45950317 29.46299934 20.14865685 13.116229
30.46157265 29.46214485 20.05403137 12.388285
29.46299171 29.46093750 19.95540047 11.665595
28.46571732 29.46144104 19.85313225 10.977934
27.46793365 29.46186447 19.74709511 10.296457
26.47133636 29.46362305 19.63773918 9.618371
25.47405815 29.46606827 19.52492332 8.970856
24.47806358 29.46925926 19.40875053 8.344044
23.48174286 29.47404480 19.28979301 7.721620
22.48567390 29.47914886 19.16759300 7.132846
21.48979759 29.48604774 19.04256630 6.569588
20.49452972 29.49483490 18.91520691 6.015665
19.49852371 29.50428772 18.78485870 5.512671
18.50410080 29.51527214 18.65291405 5.030115
17.50807762 29.52879715 18.51931190 4.580585
16.51300621 29.54353905 18.38377571 4.183484
15.51786423 29.55837059 18.24772835 3.810897
14.52405548 29.57619286 18.11367035 3.512748
13.52745056 29.59600258 17.98091507 3.228157
12.53184986 29.61484528 17.84856606 2.980161
11.53691864 29.63741112 17.72156334 2.742182
10.54098892 29.65709496 17.59922028 2.532581
9.54278851 29.67938805 17.48305702 2.335724
8.54598045 29.70146370 17.37362289 2.169802
7.54761124 29.72268867 17.27265167 2.013255
6.54761982 29.74322128 17.17854500 1.890525
5.54751205 29.76273537 17.09334946 1.776318
4.55000353 29.77869415 17.02124214 1.693011
3.54667377 29.79340553 16.96606255 1.613615
2.54528499 29.80743027 16.92492294 1.566849
1.54103076 29.81419373 16.89509964 1.525192
41.48214722 28.49584389 20.79972649 20.342661
40.47258759 28.49245644 20.76582527 19.514254
39.46555328 28.48867035 20.71847534 18.699227
38.46077728 28.48454857 20.66064644 17.885883
37.45740891 28.48053551 20.59412193 17.073475
36.45568848 28.47679138 20.52017212 16.267944
35.45448685 28.47321701 20.43975449 15.484902
34.45478058 28.47023964 20.35361290 14.713028
33.45537186 28.46778870 20.26238060 13.941935
32.45674515 28.46547890 20.16637611 13.173149
31.45895004 28.46443176 20.06615639 12.430714
30.46068954 28.46333122 19.96135330 11.702974
29.46379280 28.46337128 19.85232353 10.978049
28.46656036 28.46376038 19.73909950 10.259134
27.47007942 28.46541214 19.62163925 9.576741
26.47414207 28.46780014 19.50035667 8.902393
25.47809792 28.47098160 19.37495041 8.231923
24.48282051 28.47584152 19.24585724 7.600481
23.48766899 28.48126793 19.11303902 6.986564
22.49271584 28.48882866 18.97670937 6.381668
21.49841118 28.49732780 18.83702278 5.825453
20.50420952 28.50691414 18.69407654 5.290398
19.51002884 28.51929092 18.54812431 4.781895
18.51619720 28.53288269 18.39910126 4.334448
17.52264404 28.54799271 18.24806213 3.915070
16.52846909 28.56667328 18.09558105 3.566385
15.53676987 28.58722115 17.94302368 3.249062
14.54157162 28.60754204 17.78944397 2.952373
13.54985619 28.62914467 17.63787270 2.680933
12.55437946 28.65645599 17.49003792 2.426387
11.56007385 28.67960930 17.34324455 2.199555
10.56604290 28.70736694 17.20377350 1.987248
9.56936073 28.73322487 17.07133293 1.802287
8.57237911 28.75879478 16.94536972 1.632005
7.57550955 28.78313255 16.82799339 1.486886
6.57548475 28.80959892 16.72356987 1.361631
5.57538509 28.83571053 16.62977409 1.254813
4.57111740 28.86032104 16.54811096 1.175572
3.57064009 28.87449074 16.47593117 1.102806
2.57033658 28.88582611 16.42811966 1.052786
1.56081235 28.90081406 16.40063858 1.015292
41.47962570 27.49566078 20.79748917 19.791666
40.46834946 27.49235916 20.75813675 18.940897
39.46118164 27.48836327 20.70391464 18.105946
38.45632553 27.48438644 20.63844872 17.289126
37.45328903 27.48023605 20.56366730 16.476622
36.45170593 27.47657204 20.48107719 15.665468
35.45174408 27.47330284 20.39189148 14.857395
34.45204544 27.47056198 20.29674339 14.069881
33.45378876 27.46818542 20.19625473 13.299739
32.45600891 27.46688461 20.09101295 12.531296
31.45816803 27.46551132 19.98066521 11.763683
30.46135712 27.46519279 19.86546898 11.020065
29.46491051 27.46533966 19.74542046 10.296939
28.46876717 27.46671295 19.62057114 9.576919
27.47353172 27.46890831 19.49134254 8.864778
26.47779274 27.47213364 19.35703468 8.191151
25.48377419 27.47667503 19.21843719 7.528534
24.48944855 27.48231697 19.07558823 6.873594
23.49551582 27.48997879 18.92832375 6.265879
22.50222206 27.49847603 18.77657890 5.677541
21.50987625 27.50881958 18.62128067 5.109667
20.51628304 27.52172279 18.46172142 4.604849
19.52435493 27.53568077 18.29800415 4.130625
18.53260803 27.55281830 18.13125610 3.717672
17.54049873 27.57181549 17.96088219 3.362554
16.55142593 27.59317780 17.79038429 3.018533
15.55771446 27.61664391 17.61825562 2.712587
14.56642818 27.64339066 17.44468880 2.411338
13.57643032 27.67133522 17.27327728 2.153575
12.58331680 27.69722748 17.10085678 1.895933
11.59321213 27.72931862 16.93360519 1.682645
10.59833908 27.76269722 16.77471161 1.471242
9.60712242 27.79425621 16.62359810 1.296781
8.60766220 27.82794762 16.48187065 1.126742
7.61053371 27.85950661 16.34623909 0.994933
6.61499691 27.88771057 16.22314262 0.868595
5.61557245 27.91726685 16.12145233 0.768928
4.60084248 27.93944168 16.01589394 0.688389
3.60943842 27.97189713 15.94177818 0.630581
2.60014391 27.99294662 15.89357948 0.583330
1.58448005 27.99478149 15.84239388 0.545628
0.58349007 27.99429893 15.81408882 0.529020
41.47655869 26.49560165 20.79491806 19.246460
40.46429062 26.49203682 20.74990654 18.393326
39.45683289 26.48834038 20.68870735 17.543522
38.45173645 26.48404884 20.61530685 16.701218
37.44905853 26.48013306 20.53195000 15.879759
36.44850159 26.47654724 20.44066620 15.069266
35.44857407 26.47354507 20.34243584 14.259762
34.45032883 26.47085381 20.23809052 13.452124
33.45274353 26.46929359 20.12840843 12.659875
32.45541000 26.46761513 20.01330948 11.890768
31.45853424 26.46715736 19.89258957 11.125188
30.46268463 26.46668053 19.76631737 10.361991
29.46679878 26.46795845 19.63468742 9.618492
28.47230911 26.46980667 19.49785042 8.902845
27.47761726 26.47266388 19.35567856 8.191733
26.48398972 26.47742653 19.20845604 7.491313
25.49052811 26.48294449 19.05562782 6.834470
24.49814224 26.48999214 18.89793015 6.192686
23.50567055 26.49822617 18.73478889 5.567073
22.51483727 26.50935173 18.56728363 5.001971
21.52325821 26.52216721 18.39467812 4.465918
20.53238869 26.53632545 18.21662140 3.978289
19.54354668 26.55386353 18.03465080 3.572179
18.55269814 26.57415390 17.84784508 3.186591
17.56620598 26.59801102 17.65971375 2.839952
16.57545471 26.62296104 17.46716309 2.503229
15.58618927 26.64893723 17.26909828 2.194284
14.60118580 26.67810822 17.07237625 1.909507
13.61204815 26.71081543 16.87642288 1.644650
12.62311840 26.75084496 16.68534088 1.409176
11.63196850 26.79003143 16.49537277 1.191327
10.64242935 26.82236481 16.30145645 0.998390
9.65457153 26.86219406 16.12386322 0.827026
8.66636467 26.90042496 15.96775246 0.669014
7.66355991 26.94520760 15.82708836 0.534495
6.65462255 26.98175812 15.67644596 0.421532
5.66289997 27.00479889 15.53274345 0.331810
4.66212034 27.05074883 15.43881035 0.256960
3.64025569 27.07160568 15.32495689 0.203374
2.64437771 27.08181000 15.22820091 0.168776
1.63795817 27.11302376 15.20430851 0.140163
0.60990387 27.13416290 15.18490791 0.133156
41.47296143 25.49544716 20.79204941 18.701847
40.46042633 25.49214745 20.74118614 17.847296
39.45228958 25.48820305 20.67290688 16.996485
38.44728088 25.48400307 20.59122276 16.147734
37.44538116 25.48009682 20.49925041 15.302411
36.44512558 25.47674942 20.39901161 14.474098
35.44637680 25.47373390 20.29158211 13.664441
34.44901276 25.47180557 20.17807388 12.858091
33.45182419 25.46982384 20.05869484 12.052640
32.45547485 25.46899033 19.93327141 11.255866
31.45981979 25.46817970 19.80186462 10.487970
30.46421814 25.46921539 19.66409874 9.727744
29.47050285 25.47031403 19.52039146 8.972105
28.47648048 25.47298241 19.37072182 8.232797
27.48383904 25.47731781 19.21539879 7.529637
26.49113464 25.48201370 19.05387688 6.834839
25.49984932 25.48940468 18.88662720 6.156365
24.50841904 25.49754715 18.71246147 5.530207
23.51962662 25.50880241 18.53350449 4.931769
22.52946281 25.52093506 18.34820938 4.367350
21.54033470 25.53549385 18.15613937 3.885728
20.55434608 25.55301476 17.95913887 3.457986
19.56618309 25.57328987 17.75629425 3.060662
18.58038139 25.59670448 17.54807281 2.691079
17.59551620 25.62109375 17.33545685 2.330982
16.60993576 25.65122032 17.12053108 2.010202
15.62405109 25.68876266 16.90152168 1.699099
14.63952255 25.72521591 16.67575264 1.431394
13.65578747 25.76219559 16.44699478 1.169877
12.67874813 25.79845238 16.22311592 0.948459
11.68969536 25.84123421 16.00304413 0.730448
10.70289135 25.90320778 15.79684448 0.564861
9.71573257 25.95222664 15.58887959 0.397446
8.72801495 25.98954582 15.38848209 0.260135
7.73324394 26.01811218 15.19762039 0.125778
6.72789049 26.06966400 15.02871323 0.032417
5.71800756 26.12695122 14.86314964 -0.032404
4.73200464 26.13906860 14.69022369 -0.094148
3.71667433 26.19652367 14.59760857 -0.136334
2.69305515 26.25578880 14.51200962 -0.146413
1.68925309 26.24550056 14.40480614 -0.167683
41.46973801 24.49578857 20.78920937 18.185387
40.45626450 24.49237061 20.73236084 17.308071
39.44754791 24.48803711 20.65644264 16.449242
38.44317245 24.48401451 20.56641006 15.600800
37.44169998 24.48020744 20.46566582 14.754795
36.44226456 24.47688293 20.35626984 13.910911
35.44458008 24.47436142 20.23965836 13.075538
34.44775391 24.47222900 20.11661148 12.263988
33.45168686 24.47077560 19.98709297 11.460296
32.45629883 24.46989632 19.85112762 10.659071
31.46148491 24.46998787 19.70838165 9.862378
30.46746063 24.47061348 19.55877686 9.095824
29.47461510 24.47314072 19.40253448 8.345447
28.48245811 24.47681427 19.23977089 7.602319
27.49080086 24.48115921 19.06988144 6.875036
26.50151062 24.48804092 18.89408875 6.194811
25.51031876 24.49563217 18.71043396 5.531200
24.52313042 24.50671768 18.52049255 4.898142
23.53493881 24.51805687 18.32311249 4.335228
22.54791641 24.53284645 18.11826515 3.826651
21.56284523 24.54972267 17.90574646 3.380098
20.57938004 24.57055473 17.68729591 2.974959
19.59558678 24.59369087 17.46191025 2.574813
18.61283302 24.62052155 17.22884560 2.209125
17.63257790 24.65158463 16.98957062 1.863989
16.65460587 24.68352509 16.74517632 1.539969
15.67391109 24.71801186 16.49617004 1.244537
14.69266987 24.76527786 16.24128723 0.976128
13.71742058 24.81485939 15.98243523 0.741548
12.74495220 24.87162590 15.73343468 0.526560
11.75767326 24.92463303 15.47573757 0.336086
10.78972816 24.96607208 15.21769810 0.165479
9.79192162 25.02653503 14.96653175 0.023695
8.80575848 25.08465767 14.70621681 -0.082806
7.81403589 25.14258003 14.45751190 -0.171878
6.83083677 25.19031334 14.22723579 -0.241942
5.82486200 25.24853897 14.03958130 -0.306401
4.79976892 25.33480263 13.89554882 -0.331656
3.81407309 25.34494400 13.71730709 -0.372583
2.78314328 25.37671089 13.59402657 -0.389993
1.75366306 25.45451546 13.55490685 -0.383434
41.46655273 23.49585533 20.78647232 17.691654
40.45182037 23.49233627 20.72330284 16.804161
39.44315338 23.48833084 20.63955688 15.921879
38.43894958 23.48398018 20.54090118 15.055686
37.43833160 23.48036766 20.43120384 14.208299
36.43980026 23.47724342 20.31266403 13.365183
35.44298553 23.47482491 20.18665123 12.524512
34.44703674 23.47274590 20.05362892 11.686202
33.45204926 23.47156334 19.91373253 10.868737
32.45762253 23.47087097 19.76665115 10.069717
31.46417618 23.47131538 19.61231422 9.275210
30.47174263 23.47310829 19.45055771 8.486614
29.48001289 23.47580147 19.28122330 7.723190
28.48957634 23.47975159 19.10433197 6.988978
27.50053596 23.48636055 18.92030144 6.269471
26.51182175 23.49337387 18.72823524 5.570490
25.52489090 23.50316238 18.52813148 4.933779
24.53914833 23.51399612 18.32001114 4.337352
23.55415916 23.52902603 18.10349274 3.799980
22.57140160 23.54517937 17.87756157 3.353792
21.59024811 23.56654739 17.64424896 2.919758
20.60960579 23.58883667 17.40115356 2.502802
19.63115311 23.61470222 17.14777184 2.122148
18.65606689 23.64446449 16.88655090 1.752022
17.67967415 23.68125153 16.61795235 1.421119
16.70809937 23.72203636 16.34259415 1.106086
15.73604679 23.76857758 16.06098557 0.827011
14.76292515 23.81704330 15.77254009 0.565918
13.79245567 23.87274933 15.47182751 0.347401
12.83217144 23.92060280 15.16792965 0.143124
11.85178757 23.98389816 14.85963726 -0.019617
10.88169765 24.05407143 14.54802704 -0.161522
9.90356541 24.11719322 14.21973324 -0.258124
8.91037464 24.20254135 13.90415382 -0.336625
7.93905163 24.27740288 13.61606312 -0.388089
6.92557096 24.35638618 13.35522556 -0.441345
5.94021034 24.41644096 13.08202553 -0.458434
4.95645189 24.45105171 12.86478996 -0.496145
3.87706566 24.53353500 12.70251656 -0.508372
2.90586925 24.57012558 12.52739620 -0.490401
1.86636364 24.57440567 12.43286514 -0.528130
41.46335983 22.49602699 20.78360939 17.198076
40.44737244 22.49246216 20.71401405 16.309158
39.43866730 22.48821068 20.62219238 15.425388
38.43515015 22.48429871 20.51487350 14.545948
37.43504333 22.48057556 20.39604187 13.672598
36.43771744 22.47762871 20.26821899 12.819842
35.44162750 22.47511292 20.13246346 11.979921
34.44694901 22.47344208 19.98927689 11.142989
33.45286560 22.47225952 19.83856773 10.308809
32.46006775 22.47238541 19.68030739 9.485430
31.46769333 22.47287941 19.51375961 8.691813
30.47696304 22.47488976 19.33932304 7.909051
29.48681641 22.47863007 19.15652466 7.136134
28.49871254 22.48434830 18.96560287 6.385785
27.51143837 22.49055290 18.76609612 5.682237
26.52462769 22.49918747 18.55672073 5.006650
25.54193306 22.51014328 18.33924484 4.373917
24.55840492 22.52423477 18.11238861 3.831614
23.57725143 22.53891754 17.87407303 3.356605
22.59922791 22.55899239 17.62634277 2.897079
21.62328529 22.58115005 17.36909676 2.475688
20.64734650 22.60898972 17.10091209 2.067136
19.67458344 22.64154625 16.82096100 1.684262
18.70242119 22.67877388 16.52651787 1.336156
17.73838234 22.71210861 16.21401787 1.008025
16.78038788 22.75975037 15.90466881 0.716469
15.81674480 22.81055450 15.58808613 0.439938
14.84737968 22.86370087 15.23967457 0.207587
13.89763737 22.93040848 14.89625931 0.005425
12.92363548 22.99993896 14.51480389 -0.153223
11.97889614 23.06734276 14.13503838 -0.285824
10.99766636 23.14244652 13.72751427 -0.378937
10.04443741 23.23177147 13.34276772 -0.442267
9.06027699 23.32013321 12.96322441 -0.488309
8.06819725 23.41100121 12.57942200 -0.500642
7.11118412 23.47261429 12.26349163 -0.539399
6.05418587 23.56077766 11.97977352 -0.551406
5.06332302 23.62982750 11.66927528 -0.528906
4.07327461 23.64110947 11.46652699 -0.566899
2.97171783 23.71501541 11.34954453 -0.578301
1.98170602 23.74860001 11.20425320 -0.569966
0.91555589 23.75800896 11.12310219 -0.564927
41.45985794 21.49602318 20.78065872 16.720448
40.44319916 21.49249077 20.70436287 15.816183
39.43441772 21.48859978 20.60454178 14.930314
38.43117905 21.48442841 20.48831177 14.050672
37.43225861 21.48087120 20.36027527 13.175286
36.43573761 21.47792435 20.22292328 12.302946
35.44090652 21.47568893 20.07722473 11.440193
34.44732285 21.47397423 19.92364693 10.600913
33.45460129 21.47342682 19.76203918 9.769586
32.46280289 21.47299576 19.59184837 8.942894
31.47251701 21.47486877 19.41319847 8.124301
30.48321915 21.47741318 19.22548103 7.336279
29.49570465 21.48172569 19.02897835 6.574544
28.50895309 21.48709488 18.82286644 5.830898
27.52428818 21.49515343 18.60685539 5.116738
26.54140854 21.50557137 18.38081360 4.474144
25.56008720 21.51790810 18.14388084 3.895547
24.58218193 21.53139114 17.89596558 3.389463
23.60529900 21.55174255 17.63728142 2.925095
22.63139725 21.57321930 17.36554718 2.479661
21.66028786 21.59811592 17.07998276 2.048615
20.69361877 21.62624931 16.78146744 1.655840
19.72605133 21.66032028 16.46751022 1.280224
18.76736069 21.69695854 16.13551712 0.938271
17.80913162 21.76076126 15.79939842 0.637107
16.86093140 21.80834389 15.44006538 0.357890
15.90990448 21.85816002 15.06074238 0.109038
14.95145226 21.93488121 14.66403770 -0.094768
14.00501347 21.99344063 14.20944786 -0.255271
13.05850410 22.07501793 13.73055363 -0.359977
12.14129066 22.15982628 13.28739548 -0.450132
11.14603996 22.27242851 12.83009338 -0.510279
10.19207096 22.35704994 12.34568501 -0.544890
9.21370506 22.44210052 11.85904026 -0.542674
8.24538708 22.55374336 11.44146824 -0.539065
7.23689747 22.60547829 11.04788971 -0.558531
6.22712469 22.62519455 10.65947914 -0.581724
5.17668343 22.67747116 10.38317108 -0.604136
4.14984941 22.70401955 10.12816048 -0.606962
3.12812185 22.67427444 9.86859512 -0.624200
2.03243899 22.71686935 9.75193882 -0.626372
1.02116060 22.76186943 9.73375225 -0.630177
41.45665359 20.49596405 20.77750397 16.277922
40.43859482 20.49280167 20.69448471 15.358343
39.43039703 20.48852348 20.58649445 14.448437
38.42744446 20.48482895 20.46140862 13.556341
37.42941284 20.48106766 20.32380486 12.680859
36.43453979 20.47826195 20.17684555 11.810119
35.44059753 20.47624969 20.02124405 10.942087
34.44818878 20.47478485 19.85698509 10.077958
33.45675278 20.47384071 19.68388939 9.231420
32.46696854 20.47482109 19.50191879 8.409878
31.47830582 20.47616959 19.31064034 7.596944
30.49106407 20.47989655 19.10968399 6.797135
29.50549698 20.48427010 18.89853287 6.021339
28.52141571 20.49150085 18.67669678 5.298731
27.53899384 20.50005341 18.44334412 4.615060
26.56105232 20.51124954 18.19980049 3.992451
25.58212852 20.52491951 17.94275093 3.469732
24.60872078 20.54272461 17.67317772 2.987678
23.63783073 20.56067657 17.38988113 2.514610
22.66934776 20.58432007 17.09153175 2.072965
