//X Y Z C2M_signed_distances
-3.60119677 -27.01576424 15.51939487 0.053569
-4.61737776 -26.98344421 15.62332344 0.101368
-5.63258696 -26.96091461 15.72893810 0.188796
-6.61674690 -26.92081833 15.85322762 0.268679
-7.63225079 -26.88307762 16.00336838 0.383727
-8.62410259 -26.86613274 16.16225243 0.523295
-9.61440563 -26.82685089 16.32886887 0.677729
-10.61374760 -26.78039360 16.49789619 0.849192
-11.60822678 -26.75052261 16.67380333 1.055651
-12.59049797 -26.72205925 16.85805130 1.281171
-13.58336830 -26.68937683 17.05377007 1.521522
-14.57281685 -26.66014862 17.24620438 1.791500
-15.56743717 -26.62798882 17.43344307 2.083263
-16.55691910 -26.60519028 17.61913681 2.401620
-17.54857254 -26.58358002 17.80317688 2.745634
-18.53832054 -26.56129837 17.98291206 3.099307
-19.52912903 -26.54560661 18.16111374 3.492387
-20.52012253 -26.53075027 18.33575630 3.915679
-21.51207542 -26.51668549 18.50681686 4.416143
-22.50497055 -26.50621796 18.67277145 4.964376
-23.49783325 -26.49737358 18.83308601 5.539836
-24.49161148 -26.48974228 18.98863411 6.172593
-25.48581314 -26.48389244 19.13850212 6.820991
-26.48030090 -26.47928429 19.28334045 7.482481
-27.47542000 -26.47586441 19.42334938 8.187281
-28.46998405 -26.47372437 19.55885696 8.900603
-29.46643257 -26.47260666 19.68979836 9.619468
-30.46328735 -26.47281075 19.81507683 10.365393
-31.45914268 -26.47258377 19.93557739 11.128798
-32.45783234 -26.47446632 20.05114365 11.897117
-33.45537567 -26.47594261 20.16070938 12.666474
-34.45388412 -26.47794914 20.26524162 13.459699
-35.45358276 -26.48093605 20.36391068 14.268706
-36.45343781 -26.48394394 20.45636177 15.078089
-37.45375443 -26.48712730 20.54282188 15.888050
-38.45621872 -26.49106407 20.62234688 16.709139
-39.46055984 -26.49454308 20.69293213 17.550181
-40.46812820 -26.49876785 20.75181580 18.400277
-41.47898865 -26.50199890 20.79549980 19.251994
41.47926331 -27.50182152 20.80199623 19.794888
40.46965408 -27.49845886 20.76328087 18.945555
39.46255112 -27.49454498 20.71061707 18.110894
38.45856094 -27.49063683 20.64734650 17.294959
37.45621872 -27.48665428 20.57605553 16.483210
36.45513535 -27.48307610 20.49806976 15.672612
35.45493317 -27.47958374 20.41425896 14.864335
34.45519257 -27.47688293 20.32512474 14.076961
33.45581818 -27.47396469 20.23062897 13.305548
32.45682526 -27.47205925 20.13078308 12.535588
31.45827103 -27.47037125 20.02569389 11.766902
30.46025467 -27.46967888 19.91554451 11.021840
29.46238136 -27.46957016 19.80027199 10.296787
28.46518898 -27.47072029 19.68014717 9.574885
27.46806145 -27.47227478 19.55491447 8.859871
26.47140694 -27.47541046 19.42487144 8.184120
25.47609329 -27.48033714 19.29124260 7.518738
24.47991943 -27.48665619 19.15367889 6.860333
23.48306084 -27.49267960 19.01011276 6.246585
22.48915291 -27.50180054 18.86335373 5.653782
21.49311447 -27.51318359 18.71343803 5.079026
20.49714661 -27.52516747 18.55866623 4.565247
19.50205040 -27.54070663 18.40091705 4.080857
18.50565147 -27.55900002 18.23989105 3.655988
17.51007843 -27.57738304 18.07578278 3.291694
16.51327705 -27.59718323 17.90929794 2.942329
15.51476288 -27.62419510 17.74263382 2.634411
14.51812267 -27.65296555 17.57553864 2.329998
13.51707554 -27.67782974 17.40489197 2.066764
12.52167130 -27.70794296 17.23777390 1.808681
11.52161980 -27.74229622 17.07730103 1.593458
10.52060413 -27.77013397 16.91854668 1.375858
9.52106094 -27.80440903 16.77238655 1.202333
8.51877403 -27.83568573 16.63835907 1.027801
7.50097799 -27.86930275 16.50124359 0.895944
6.50175905 -27.89849663 16.37310410 0.778031
5.50066853 -27.92697716 16.27595520 0.674772
4.48810434 -27.93658638 16.18825340 0.580411
3.47711921 -27.94622231 16.11251259 0.505123
2.46705842 -27.95917320 16.05932617 0.456874
1.45173919 -27.96724510 16.01919365 0.422795
0.45530546 -27.96639061 15.99708939 0.405224
-0.55232888 -27.97363281 16.01653671 0.404519
-1.55978465 -27.94826126 16.03733635 0.397808
-2.56807160 -27.92177582 16.07436180 0.427892
-3.57458091 -27.90967560 16.14058304 0.470501
-4.57415295 -27.89766693 16.22446060 0.543564
-5.58013725 -27.86835861 16.31518173 0.621630
-6.57591581 -27.84902763 16.42728996 0.724742
-7.58551216 -27.82457733 16.55360985 0.851282
-8.58536148 -27.78426361 16.67095757 0.987755
-9.57686996 -27.76044846 16.81258965 1.160228
-10.56595898 -27.73271942 16.96803665 1.335330
-11.57057858 -27.69342041 17.12031555 1.546408
-12.56154537 -27.66441536 17.27515602 1.770494
-13.55351734 -27.64409256 17.44012070 2.034432
-14.54978466 -27.62221146 17.60533714 2.305068
-15.53904533 -27.60231590 17.77184486 2.612487
-16.53622437 -27.57909393 17.93605614 2.924108
-17.52814484 -27.55999947 18.09696198 3.276426
-18.52083015 -27.54516602 18.25802612 3.644326
-19.51418686 -27.52841568 18.41592216 4.072507
-20.50716209 -27.51498413 18.57162094 4.559021
-21.50079536 -27.50594330 18.72476578 5.075146
-22.49500656 -27.49663162 18.87379265 5.651474
-23.48950577 -27.48786926 19.01845741 6.245693
-24.48487663 -27.48329353 19.15888786 6.860543
-25.48038292 -27.47816849 19.29457092 7.519781
-26.47602081 -27.47492981 19.42593765 8.186850
-27.47219086 -27.47241974 19.55307579 8.862982
-28.46817398 -27.47123718 19.67612457 9.577547
-29.46569824 -27.47093964 19.79496384 10.300244
-30.46209145 -27.47043610 19.90919495 11.023747
-31.46044731 -27.47216988 20.01942635 11.769714
-32.45838547 -27.47341156 20.12454987 12.537589
-33.45664597 -27.47494125 20.22514725 13.306715
-34.45659256 -27.47792816 20.32066727 14.078603
-35.45638275 -27.48079109 20.41032410 14.866110
-36.45672607 -27.48384857 20.49445724 15.674237
-37.45794678 -27.48754883 20.57268524 16.485012
-38.46029282 -27.49087524 20.64419746 17.296376
-39.46506500 -27.49517250 20.70731926 18.113177
-40.47233582 -27.49875832 20.75928879 18.947794
-41.48170090 -27.50186539 20.79758453 19.796778
41.48200607 -28.50170517 20.80401230 20.346014
40.47339249 -28.49864197 20.77046967 19.518717
39.46681213 -28.49491501 20.72429276 18.704163
38.46274185 -28.49095154 20.66827393 17.891539
37.46023560 -28.48719406 20.60470772 17.080065
36.45869446 -28.48333931 20.53478050 16.274805
35.45780563 -28.47985649 20.45916748 15.492262
34.45771790 -28.47658730 20.37833214 14.719961
33.45777893 -28.47390366 20.29256821 13.948298
32.45818710 -28.47128868 20.20180321 13.178520
31.45930290 -28.46972847 20.10629654 12.434880
30.46049309 -28.46826744 20.00613785 11.706151
29.46215630 -28.46788788 19.90144348 10.979402
28.46422958 -28.46812057 19.79230690 10.259354
27.46654701 -28.46943665 19.67900467 9.575156
26.46946716 -28.47090912 19.56176186 8.898218
25.47201920 -28.47423363 19.44029617 8.225474
24.47608185 -28.47906685 19.31543922 7.592064
23.47923470 -28.48452950 19.18758011 6.974618
22.48208046 -28.49103546 19.05555725 6.364531
21.48637009 -28.50026512 18.92033958 5.804707
20.49057770 -28.51089096 18.78294945 5.264419
19.49317360 -28.52234840 18.64206505 4.747907
18.49714088 -28.53514862 18.49873352 4.290736
17.49934387 -28.55254745 18.35378075 3.860933
16.50395012 -28.57174873 18.20885468 3.500705
15.50424767 -28.58876038 18.06071091 3.174333
14.50697517 -28.60878563 17.91246605 2.875302
13.50882244 -28.63463211 17.76786041 2.601018
12.50898838 -28.65813828 17.62375641 2.342139
11.51119614 -28.67934799 17.48236465 2.109791
10.51038265 -28.70825958 17.34985352 1.895220
9.50800991 -28.73384666 17.22083282 1.706657
8.50506020 -28.75970078 17.09906006 1.536069
7.50184917 -28.78235817 16.98379135 1.387017
6.49774504 -28.80364990 16.87612534 1.262133
5.49702072 -28.82295227 16.78405571 1.149796
4.49426126 -28.84407616 16.71666336 1.062957
3.48194098 -28.85936928 16.65761948 0.984776
2.47996449 -28.86849594 16.60997581 0.934984
1.47249210 -28.86833763 16.57612991 0.890878
0.46859679 -28.86845589 16.56382942 0.870709
-0.53358150 -28.85748100 16.56389999 0.863786
-1.53356338 -28.85328674 16.59383011 0.870009
-2.54318666 -28.84770012 16.64082146 0.908139
-3.54680634 -28.83215523 16.68959808 0.949480
-4.54877281 -28.80905151 16.75061989 1.025633
-5.54932547 -28.79210472 16.83188248 1.108663
-6.55260563 -28.76866531 16.92073250 1.220794
-7.54916286 -28.74478912 17.02049065 1.347930
-8.55280972 -28.72475433 17.13717461 1.498454
-9.54877567 -28.69856644 17.25303078 1.671868
-10.54323387 -28.67472649 17.38315392 1.859148
-11.53787994 -28.65232468 17.52393341 2.074016
-12.53827095 -28.62861633 17.66336441 2.306525
-13.53436089 -28.60883141 17.80072784 2.572582
-14.52820683 -28.58899117 17.94118690 2.852330
-15.52284718 -28.57080269 18.08457947 3.156058
-16.51779366 -28.55598450 18.23000336 3.483960
-17.51318550 -28.54079247 18.37364388 3.850369
-18.50838661 -28.52499199 18.51522827 4.282719
-19.50169373 -28.51445007 18.65653610 4.741863
-20.49736595 -28.50486755 18.79595947 5.260621
-21.49154282 -28.49415398 18.93203354 5.800718
-22.48721886 -28.48671150 19.06603241 6.362891
-23.48387718 -28.48264313 19.19637108 6.975112
-24.47957802 -28.47667694 19.32212448 7.591865
-25.47633171 -28.47359276 19.44470215 8.227632
-26.47320557 -28.47075272 19.56320763 8.900592
-27.47008324 -28.46959496 19.67810631 9.577724
-28.46748352 -28.46869469 19.78924561 10.262123
-29.46478653 -28.46857071 19.89673424 10.981829
-30.46304131 -28.46982384 20.00068283 11.709073
-31.46114540 -28.47083855 20.10034752 12.436933
-32.45951080 -28.47233009 20.19622993 13.180118
-33.45918655 -28.47505188 20.28782463 13.950015
-34.45904922 -28.47768974 20.37417221 14.721583
-35.45945358 -28.48077011 20.45541763 15.494002
-36.46045303 -28.48425865 20.53129005 16.276642
-37.46191788 -28.48755836 20.60144997 17.081520
-38.46475220 -28.49165916 20.66519356 17.893462
-39.46937943 -28.49518776 20.72082329 18.706255
-40.47587204 -28.49887657 20.76646996 19.520703
-41.48478317 -28.50194168 20.79969597 20.348271
41.48464584 -29.50180435 20.80595207 20.927670
40.47679901 -29.49891281 20.77724648 20.113682
39.47098541 -29.49518776 20.73732758 19.300408
38.46682739 -29.49148369 20.68828773 18.488207
37.46423340 -29.48759842 20.63211060 17.688406
36.46237183 -29.48392105 20.56999016 16.909586
35.46116257 -29.48014450 20.50245857 16.136258
34.46014404 -29.47678566 20.42975235 15.363314
33.46027756 -29.47370529 20.35235596 14.594864
32.46031570 -29.47117615 20.27057076 13.852366
31.46042252 -29.46867943 20.18411636 13.121241
30.46172523 -29.46736336 20.09361649 12.392208
29.46257210 -29.46600151 19.99905396 11.668794
28.46385193 -29.46576881 19.90041924 10.979276
27.46597672 -29.46596336 19.79819679 10.296972
26.46809006 -29.46782494 19.69276428 9.617299
25.47012711 -29.46942139 19.58368683 8.967995
24.47267342 -29.47204590 19.47127151 8.338540
23.47607613 -29.47724724 19.35655975 7.714601
22.47819710 -29.48289490 19.23884010 7.123477
21.48138618 -29.48867607 19.11808395 6.556166
20.48442650 -29.49697113 18.99531746 5.997642
19.48776627 -29.50638580 18.87084198 5.490366
18.48961067 -29.51860046 18.74430084 5.001505
17.49263191 -29.53017235 18.61564636 4.544271
16.49490356 -29.54358673 18.48645782 4.136657
15.49787235 -29.55937767 18.35885620 3.753564
14.49719334 -29.57734680 18.23009682 3.442554
13.50092030 -29.59397316 18.10236549 3.152418
12.50058460 -29.61307907 17.97776604 2.900190
11.50170517 -29.63598633 17.85784340 2.657446
10.50116062 -29.65459061 17.74050140 2.444752
9.50025463 -29.67337799 17.62877274 2.241986
8.49860954 -29.69359970 17.52367401 2.073170
7.49719906 -29.71291161 17.42571640 1.913282
6.49516916 -29.73089981 17.33680344 1.787226
5.49401045 -29.74526787 17.25860977 1.665679
4.48882771 -29.75864220 17.19087982 1.578631
3.48822474 -29.77033424 17.13626099 1.498018
2.48719311 -29.77468300 17.09704781 1.443645
1.48236823 -29.77769279 17.07496262 1.397343
0.48231882 -29.77807045 17.06611061 1.376719
-0.52279097 -29.77981758 17.07529259 1.374937
-1.52573538 -29.77519226 17.09300041 1.387340
-2.52615309 -29.76047707 17.12102127 1.423568
-3.52562881 -29.74607658 17.16699982 1.463775
-4.52986860 -29.73367882 17.22684860 1.546112
-5.53113604 -29.72151947 17.29442215 1.631327
-6.53152180 -29.70591736 17.37118149 1.755844
-7.53093004 -29.68832779 17.45872498 1.882933
-8.52832794 -29.66833687 17.55426979 2.043258
-9.52772999 -29.64801025 17.65968704 2.212420
-10.52589703 -29.62981987 17.77034950 2.415557
-11.52094746 -29.61338997 17.88826752 2.629221
-12.52004814 -29.59761810 18.01032257 2.876726
-13.51610756 -29.57653809 18.13110733 3.129324
-14.51334381 -29.56130219 18.25506020 3.423456
-15.50953960 -29.54806137 18.38014412 3.740133
-16.50534248 -29.53285217 18.50588799 4.125652
-17.50165558 -29.52074814 18.63276482 4.535486
-18.49767113 -29.51196289 18.75918770 4.996628
-19.49385452 -29.50126076 18.88363647 5.486772
-20.48905563 -29.49203300 19.00710869 5.994380
-21.48503304 -29.48615074 19.12976646 6.554731
-22.48231316 -29.48055458 19.24934196 7.122914
-23.47876167 -29.47459984 19.36524200 7.713569
-24.47623253 -29.47173309 19.47877693 8.340102
-25.47397232 -29.46911049 19.58854294 8.969991
-26.47146988 -29.46767426 19.69499588 9.619429
-27.46907234 -29.46675301 19.79823303 10.299668
-28.46711731 -29.46669006 19.89838219 10.982203
-29.46537018 -29.46734047 19.99522591 11.671720
-30.46379280 -29.46843719 20.08870125 12.394414
-31.46236038 -29.46986389 20.17899895 13.123393
-32.46163559 -29.47215080 20.26572990 13.853901
-33.46164322 -29.47476578 20.34808350 14.596487
-34.46196365 -29.47782135 20.42588043 15.365265
-35.46288300 -29.48109436 20.49880981 16.138073
-36.46418381 -29.48449707 20.56661797 16.911232
-37.46613312 -29.48833466 20.62891769 17.690237
-38.46903992 -29.49186707 20.68500710 18.490090
-39.47358322 -29.49556351 20.73372841 19.302584
-40.47945404 -29.49914551 20.77319717 20.115801
-41.48746109 -29.50207329 20.80160141 20.929928
41.48682785 -30.50183678 20.80773926 21.521748
40.48014069 -30.49905586 20.78357887 20.708928
39.47504807 -30.49592400 20.74956894 19.898531
38.47085953 -30.49199295 20.70728874 19.103720
37.46805191 -30.48819542 20.65821648 18.327311
36.46622849 -30.48447418 20.60359001 17.553887
35.46452332 -30.48075294 20.54382133 16.780430
34.46350098 -30.47720528 20.47914696 16.013647
33.46270752 -30.47398186 20.40991592 15.272459
32.46270752 -30.47103691 20.33660316 14.540694
31.46265602 -30.46834946 20.25931358 13.809212
30.46279907 -30.46615982 20.17790985 13.084490
29.46378899 -30.46477890 20.09302521 12.391978
28.46470451 -30.46360207 20.00467110 11.705972
27.46581268 -30.46342659 19.91298866 11.021519
26.46742630 -30.46364212 19.81806946 10.362166
25.46991539 -30.46527863 19.72092247 9.727210
24.47111893 -30.46717072 19.62102509 9.093118
23.47305679 -30.46981430 19.51792526 8.480937
22.47626114 -30.47429657 19.41315079 7.901895
21.47785568 -30.47955132 19.30640984 7.325497
20.48058701 -30.48555756 19.19763565 6.781956
19.48237419 -30.49341393 19.08702469 6.265814
18.48504829 -30.50144577 18.97487259 5.757712
17.48752403 -30.51107979 18.86268806 5.303533
16.48849297 -30.52190590 18.74970055 4.862305
15.49084187 -30.53587723 18.63695908 4.462769
14.49265289 -30.54730415 18.52460098 4.097653
13.49431324 -30.56221962 18.41509819 3.763537
12.49330044 -30.57731628 18.30655670 3.483713
11.49409676 -30.59283257 18.19994164 3.228707
10.49618149 -30.60908127 18.09980202 3.018598
9.49502468 -30.62474823 18.00468445 2.807031
8.49362850 -30.64098930 17.91393280 2.639813
7.49373531 -30.65543175 17.82972908 2.471812
6.49301577 -30.66748619 17.75319672 2.343573
5.49147844 -30.68123055 17.68648529 2.218459
4.49081516 -30.69260216 17.62885666 2.130695
3.49092364 -30.69804192 17.58186150 2.044539
2.48834038 -30.70440292 17.55034637 1.989596
1.48852491 -30.70835304 17.53085136 1.945558
0.48747551 -30.70788574 17.52383614 1.923220
-0.51682705 -30.70669365 17.52556610 1.922416
-1.51366174 -30.70016861 17.53964424 1.934973
-2.51484132 -30.69463348 17.57062531 1.973701
-3.51645684 -30.68696213 17.60972023 2.023402
-4.51536179 -30.67796898 17.65873146 2.107135
-5.51805401 -30.66408920 17.71568108 2.193380
-6.51828194 -30.64969254 17.78035927 2.319557
-7.51665401 -30.63741112 17.85481262 2.448642
-8.51356602 -30.62315178 17.93869209 2.616751
-9.51322556 -30.60953712 18.03021240 2.786086
-10.51111126 -30.59416962 18.12553596 2.997033
-11.51066685 -30.57950592 18.22500801 3.209317
-12.50522518 -30.56323814 18.32864380 3.465631
-13.50402546 -30.55135536 18.43805313 3.748182
-14.50259972 -30.53787613 18.54617691 4.086081
-15.49943638 -30.52498817 18.65496445 4.451557
-16.49552155 -30.51536369 18.76628304 4.855895
-17.49377251 -30.50556564 18.87771225 5.298637
-18.49033546 -30.49577713 18.98797989 5.753366
-19.48715019 -30.48894882 19.09859467 6.262995
-20.48345375 -30.48319817 19.20848656 6.780259
-21.48138428 -30.47727776 19.31667709 7.324791
-22.47799301 -30.47252464 19.42283058 7.900782
-23.47601128 -30.46951294 19.52720833 8.481922
-24.47434044 -30.46696281 19.62816811 9.094724
-25.47247314 -30.46545219 19.72605324 9.728835
-26.47089767 -30.46485138 19.82106781 10.365264
-27.46881485 -30.46442413 19.91345978 11.024299
-28.46772194 -30.46520233 20.00312805 11.709205
-29.46634483 -30.46604347 20.08976364 12.394626
-30.46504211 -30.46744347 20.17377663 13.086928
-31.46427727 -30.46950340 20.25483513 13.811099
-32.46427155 -30.47215843 20.33234978 14.542503
-33.46434402 -30.47491074 20.40602493 15.274182
-34.46526337 -30.47816658 20.47548866 16.015496
-35.46632385 -30.48146248 20.54030800 16.782154
-36.46814346 -30.48525620 20.60021400 17.555741
-37.47026062 -30.48874283 20.65486526 18.329235
-38.47328568 -30.49243546 20.70377541 19.105755
-39.47746277 -30.49622917 20.74577713 19.900498
-40.48292923 -30.49925613 20.77949142 20.711136
-41.48987961 -30.50215530 20.80332565 21.524228
41.48909378 -31.50193977 20.80940437 22.115948
40.48312759 -31.49941254 20.78957176 21.309250
39.47853470 -31.49619293 20.76090622 20.520111
38.47498703 -31.49286461 20.72502899 19.745530
37.47202682 -31.48901558 20.68293381 18.971575
36.46986771 -31.48519516 20.63542938 18.198073
35.46818542 -31.48152542 20.58312988 17.434243
34.46667862 -31.47780609 20.52621841 16.694333
33.46578598 -31.47429657 20.46498108 15.961615
32.46517181 -31.47119141 20.39985657 15.229376
31.46513939 -31.46846581 20.33121490 14.504562
30.46498108 -31.46558952 20.25900078 13.809034
29.46523094 -31.46354866 20.18334770 13.121143
28.46588135 -31.46218681 20.10465813 12.434328
27.46679878 -31.46119690 20.02295494 11.766836
26.46807671 -31.46086311 19.93885612 11.127216
25.46915436 -31.46082497 19.85222626 10.488536
24.47120476 -31.46240997 19.76362419 9.862372
23.47235107 -31.46404076 19.67279243 9.273383
22.47405624 -31.46649742 19.57976341 8.688105
21.47620010 -31.47053337 19.48520851 8.118488
20.47783279 -31.47571754 19.38903427 7.588966
19.48004913 -31.48067474 19.29162216 7.062365
18.48154068 -31.48719406 19.19353676 6.568375
17.48354149 -31.49512100 19.09518433 6.102760
16.48514938 -31.50370216 18.99658203 5.646222
15.48603058 -31.51172638 18.89723015 5.242096
14.48856258 -31.52359962 18.80059624 4.849468
13.48816109 -31.53487968 18.70457077 4.500291
12.49102497 -31.54638290 18.61112785 4.176545
11.48948479 -31.55725288 18.51980591 3.885632
10.49044514 -31.57065010 18.43213463 3.634949
9.49061584 -31.58444405 18.34937668 3.412373
8.49166489 -31.59525299 18.27139664 3.230118
7.49228573 -31.60579491 18.20019531 3.063504
6.49063063 -31.61754990 18.13572121 2.928980
5.49099398 -31.62605858 18.07740402 2.804196
4.49092674 -31.63290215 18.02790070 2.708435
3.49158001 -31.63963509 17.98991585 2.624423
2.49124026 -31.64517212 17.96140862 2.567365
1.49124324 -31.64704514 17.94345665 2.523403
0.49059829 -31.64913177 17.93705559 2.502916
-0.50906122 -31.64686966 17.93949890 2.500365
-1.50734830 -31.64381981 17.95332336 2.516041
-2.50895596 -31.63932419 17.97686005 2.556119
-3.50910044 -31.63235664 18.00862885 2.610182
-4.50895452 -31.62390137 18.04867935 2.692788
-5.50750971 -31.61684227 18.09882927 2.787719
-6.50639677 -31.60749817 18.15657425 2.912603
-7.50663996 -31.59516144 18.22008514 3.046819
-8.50473404 -31.58405113 18.29119873 3.213461
-9.50323200 -31.57230759 18.36875725 3.395756
-10.50186539 -31.56033325 18.45143509 3.621216
-11.49969196 -31.54858017 18.53805161 3.874209
-12.49715710 -31.53747940 18.62902832 4.165074
-13.49666405 -31.52700043 18.72223663 4.491378
-14.49329472 -31.51633835 18.81708145 4.841095
-15.49181175 -31.50677299 18.91370201 5.236774
-16.49017334 -31.49780464 19.01029587 5.640907
-17.48707008 -31.49026680 19.10770226 6.098449
-18.48506546 -31.48406029 19.20553780 6.565922
-19.48288727 -31.47821045 19.30249405 7.060757
-20.48031044 -31.47290421 19.39883804 7.587168
-21.47797775 -31.46938896 19.49465370 8.117910
-22.47615433 -31.46644783 19.58883476 8.688873
-23.47470665 -31.46443748 19.68075943 9.274820
-24.47331810 -31.46339989 19.77026939 9.864281
-25.47231865 -31.46257782 19.85710716 10.491841
-26.47066689 -31.46216393 19.94141579 11.129859
-27.46981621 -31.46293449 20.02360916 11.770109
-28.46856880 -31.46357918 20.10323715 12.437172
-29.46773720 -31.46497154 20.18061066 13.123859
-30.46711731 -31.46709824 20.25538063 13.811529
-31.46701431 -31.46960640 20.32727051 14.506604
-32.46685791 -31.47218513 20.39600563 15.231182
-33.46758270 -31.47533035 20.46134567 15.963526
-34.46856689 -31.47875595 20.52268219 16.696248
-35.47035980 -31.48248863 20.57960320 17.436388
-36.47196960 -31.48579025 20.63187599 18.199944
-37.47439194 -31.48955154 20.67931747 18.973603
-38.47726059 -31.49320030 20.72126961 19.747353
-39.48124695 -31.49649811 20.75696945 20.522257
-40.48618317 -31.49975395 20.78527832 21.311718
-41.49199677 -31.50217056 20.80489349 22.118258
41.49113083 -32.50211334 20.81085777 22.720272
40.48606491 -32.49975967 20.79503822 21.936209
39.48173141 -32.49681091 20.77150917 21.162400
38.47858047 -32.49352264 20.74142075 20.389094
37.47586823 -32.48999405 20.70586777 19.615864
36.47362137 -32.48626328 20.66530991 18.855463
35.47179413 -32.48247910 20.62015152 18.117152
34.47026443 -32.47870636 20.57080078 17.384068
33.46889877 -32.47497559 20.51738548 16.651041
32.46809006 -32.47149658 20.46019363 15.925873
31.46766472 -32.46854019 20.39969444 15.229407
30.46753502 -32.46579742 20.33622551 14.540534
29.46748543 -32.46316147 20.26971054 13.851892
28.46766663 -32.46098709 20.20028877 13.178265
27.46803856 -32.45924759 20.12821770 12.534849
26.46920776 -32.45863724 20.05396843 11.894382
25.47032356 -32.45843887 19.97786331 11.258843
24.47122574 -32.45806885 19.89974594 10.660716
23.47270012 -32.45911026 19.82013130 10.070901
22.47370148 -32.46067429 19.73866463 9.484893
21.47500420 -32.46298599 19.65534019 8.941465
20.47656250 -32.46561432 19.57077217 8.405890
19.47829628 -32.47022629 19.48581314 7.882116
18.47988510 -32.47473145 19.40037918 7.402352
17.48109436 -32.47988510 19.31436539 6.925876
16.48266792 -32.48631287 19.22853851 6.483386
15.48347950 -32.49404144 19.14326668 6.067649
14.48452950 -32.50186539 19.05817986 5.663474
13.48660374 -32.50981522 18.97520638 5.309771
12.48632336 -32.51930618 18.89435387 4.960701
11.48839855 -32.52921677 18.81661987 4.663730
10.48733997 -32.53770447 18.74089622 4.377556
9.48850441 -32.54643250 18.66839981 4.133065
8.49007225 -32.55673599 18.60252190 3.912579
7.48940182 -32.56604767 18.54195404 3.723606
6.49074841 -32.57292938 18.48628998 3.561129
5.49090958 -32.58034515 18.43764687 3.426253
4.49205303 -32.58599472 18.39676666 3.317686
3.49222803 -32.59074020 18.36384773 3.231545
2.49184084 -32.59304047 18.33856201 3.168949
1.49379730 -32.59687805 18.32330322 3.128028
0.49370390 -32.59702682 18.31632996 3.106214
-0.50445777 -32.59657288 18.31885719 3.104777
-1.50541186 -32.59454346 18.32995224 3.122831
-2.50416040 -32.59077835 18.34882164 3.162611
-3.50285697 -32.58658218 18.37637520 3.222474
-4.50347424 -32.58110428 18.41087151 3.308160
-5.50177288 -32.57392120 18.45167160 3.415676
-6.50143337 -32.56655502 18.50033569 3.551565
-7.49819803 -32.55928802 18.55607224 3.713712
-8.49837589 -32.55059433 18.61730957 3.903874
-9.49511909 -32.54087067 18.68394470 4.124689
-10.49498653 -32.53144836 18.75587463 4.369994
-11.49243164 -32.52167511 18.83090591 4.654498
-12.49322891 -32.51373291 18.90884209 4.955046
-13.48934555 -32.50500107 18.98879242 5.303830
-14.48832703 -32.49666977 19.07214165 5.657906
-15.48702240 -32.48936081 19.15619469 6.063206
-16.48531914 -32.48302078 19.24069405 6.480164
-17.48371124 -32.47741318 19.32563972 6.923906
-18.48221588 -32.47215652 19.41058350 7.400438
-19.47966003 -32.46815109 19.49542427 7.880391
-20.47820473 -32.46508789 19.58028412 8.405858
-21.47650528 -32.46241379 19.66393852 8.941471
-22.47569275 -32.46114731 19.74626923 9.486215
-23.47450638 -32.46028519 19.82664108 10.072804
-24.47339630 -32.45951843 19.90516281 10.663121
-25.47258568 -32.45977402 19.98170471 11.261285
-26.47189903 -32.46036911 20.05611420 11.897445
-27.47084236 -32.46117783 20.12847137 12.538128
-28.47022057 -32.46249771 20.19900131 13.181055
-29.46977997 -32.46472549 20.26727295 13.854556
-30.46977043 -32.46697998 20.33303261 14.542854
-31.46956825 -32.46955872 20.39620209 15.231362
-32.47019958 -32.47277069 20.45660019 15.928160
-33.47091293 -32.47613525 20.51370239 16.653187
-34.47243118 -32.47974777 20.56711388 17.386237
-35.47394943 -32.48319244 20.61643600 18.119082
-36.47605896 -32.48698044 20.66149902 18.857621
-37.47818375 -32.49033737 20.70196533 19.617718
-38.48124313 -32.49391937 20.73746300 20.391247
-39.48480988 -32.49715424 20.76724434 21.164828
-40.48896790 -32.50009155 20.79048729 21.938490
-41.49400711 -32.50230026 20.80629921 22.722489
41.49289322 -33.50226212 20.81207657 23.351130
40.48861313 -33.50022888 20.79979706 22.578387
39.48514175 -33.49755859 20.78111267 21.805638
38.48177338 -33.49436188 20.75654411 21.033261
37.47952271 -33.49103165 20.72696686 20.276663
36.47729874 -33.48742294 20.69294357 19.539790
35.47537231 -33.48373795 20.65469360 18.806828
34.47378922 -33.47988892 20.61252785 18.073880
33.47246552 -33.47608185 20.56673050 17.349032
32.47118378 -33.47228241 20.51739693 16.650906
31.47044182 -33.46886063 20.46473694 15.961205
30.47027969 -33.46602631 20.40938568 15.272324
29.47002792 -33.46310043 20.35154343 14.594560
28.47007751 -33.46056366 20.29117584 13.947958
27.47035980 -33.45846176 20.22848320 13.305234
26.47071648 -33.45655060 20.16359520 12.664134
25.47158051 -33.45546722 20.09703064 12.056863
24.47260666 -33.45520401 20.02921867 11.464244
23.47348785 -33.45507813 19.95991898 10.872050
22.47429466 -33.45548248 19.88911057 10.311444
21.47549057 -33.45612335 19.81706047 9.770799
20.47627068 -33.45780945 19.74391937 9.231755
19.47762871 -33.46012115 19.66999435 8.732700
18.47909546 -33.46348190 19.59607697 8.248752
17.47975540 -33.46755981 19.52186394 7.772389
16.48111916 -33.47218323 19.44767189 7.343831
15.48223686 -33.47674561 19.37391472 6.918242
14.48282528 -33.48225784 19.30076599 6.527158
13.48421860 -33.48955154 19.22941017 6.162553
12.48519325 -33.49574661 19.15970421 5.810991
11.48574543 -33.50292206 19.09230995 5.506008
10.48737335 -33.51001358 19.02830887 5.204431
9.48726559 -33.51639938 18.96750641 4.955445
8.48753452 -33.52357101 18.90987015 4.712947
7.49040699 -33.53031540 18.85786629 4.516085
6.48996639 -33.53624725 18.81163025 4.331314
5.49114561 -33.54049301 18.77014923 4.183419
4.49218130 -33.54549789 18.73560143 4.055345
3.49284887 -33.54911041 18.70766830 3.958145
2.49474072 -33.55237579 18.68740082 3.882750
1.49453032 -33.55263138 18.67324066 3.833091
0.49624771 -33.55432892 18.66749573 3.808414
-0.50333911 -33.55371094 18.66887474 3.807554
-1.50183880 -33.55224609 18.67750359 3.831463
-2.50095272 -33.55014038 18.69342232 3.879152
-3.50025964 -33.54668808 18.71584320 3.953836
-4.49852848 -33.54236221 18.74485397 4.050430
-5.49784279 -33.53756714 18.78020477 4.178671
-6.49587440 -33.53235245 18.82138634 4.326177
-7.49583960 -33.52626038 18.86808968 4.510776
-8.49230671 -33.51948166 18.92043495 4.707928
-9.49159241 -33.51278687 18.97821999 4.950955
-10.48972988 -33.50630951 19.03989029 5.199523
-11.48949718 -33.49958038 19.10469818 5.502070
-12.48768806 -33.49225235 19.17136955 5.806851
-13.48640060 -33.48491669 19.24068642 6.157733
-14.48489952 -33.47992706 19.31240082 6.524570
-15.48400211 -33.47479248 19.38500404 6.916268
-16.48290634 -33.46943283 19.45797920 7.341377
-17.48169708 -33.46547699 19.53132820 7.770847
-18.48010635 -33.46308517 19.60487938 8.248476
-19.47872162 -33.45962906 19.67843246 8.732494
-20.47713852 -33.45772552 19.75189400 9.231932
-21.47711372 -33.45707703 19.82443047 9.772346
-22.47588348 -33.45640564 19.89527130 10.313017
-23.47492218 -33.45598984 19.96513748 10.873615
-24.47459602 -33.45669556 20.03355408 11.466636
-25.47393608 -33.45742416 20.10010529 12.059861
-26.47331238 -33.45861053 20.16505241 12.667387
-27.47274590 -33.45993042 20.22839737 13.307888
-28.47261047 -33.46239853 20.28993034 13.950963
-29.47242165 -33.46450424 20.34930992 14.597136
-30.47246742 -33.46714783 20.40665817 15.274565
-31.47291946 -33.47034073 20.46152878 15.963887
-32.47356033 -33.47361374 20.51364899 16.653387
-33.47468185 -33.47725296 20.56278038 17.351296
-34.47592163 -33.48075485 20.60861969 18.075894
-35.47793579 -33.48454666 20.65068436 18.809109
-36.47974777 -33.48795700 20.68877983 19.541790
-37.48205185 -33.49142075 20.72281647 20.278649
-38.48494339 -33.49485397 20.75219345 21.035838
-39.48790359 -33.49783325 20.77647781 21.807768
-40.49173737 -33.50051117 20.79513359 22.580801
-41.49563980 -33.50242996 20.80747604 23.353186
41.49414063 -34.50238419 20.81303406 23.992033
40.49124146 -34.50075912 20.80380058 23.220705
39.48799133 -34.49836349 20.78946686 22.450653
38.48527145 -34.49546814 20.77008057 21.697108
37.48274231 -34.49222946 20.74612427 20.961609
36.48082733 -34.48878098 20.71816826 20.229180
35.47896194 -34.48517609 20.68643570 19.496544
34.47732162 -34.48144531 20.65116310 18.772509
33.47594833 -34.47753525 20.61256981 18.073908
32.47479248 -34.47375488 20.57084846 17.383927
31.47375488 -34.46989059 20.52609634 16.693892
30.47312546 -34.46643066 20.47855949 16.013132
29.47305679 -34.46352768 20.42884827 15.363501
28.47289467 -34.46044922 20.37706757 14.719663
27.47289658 -34.45783997 20.32324982 14.076416
26.47322845 -34.45555496 20.26766205 13.458295
25.47360992 -34.45359039 20.21044350 12.863337
24.47429466 -34.45220566 20.15195656 12.269185
23.47491455 -34.45125961 20.09238815 11.691163
22.47577858 -34.45066452 20.03184319 11.147418
21.47620201 -34.45082474 19.97027397 10.604830
20.47726250 -34.45132446 19.90778542 10.081314
19.47813988 -34.45231247 19.84477997 9.592184
18.47872162 -34.45425034 19.78134155 9.104274
17.47985458 -34.45634842 19.71776009 8.649702
16.48055649 -34.45902252 19.65437126 8.217311
15.48172379 -34.46287537 19.59171677 7.791338
14.48233414 -34.46643829 19.52957726 7.413613
13.48286343 -34.47066498 19.46809387 7.040219
12.48445034 -34.47581863 19.40876389 6.702262
11.48534775 -34.48014069 19.35153008 6.387312
10.48621559 -34.48501968 19.29680061 6.088725
9.48754501 -34.49080276 19.24551010 5.834368
8.48814583 -34.49470139 19.19712067 5.581757
7.48869705 -34.49948502 19.15273857 5.383587
6.49090099 -34.50414658 19.11351395 5.187938
5.49139595 -34.50777054 19.07936478 5.039664
4.49205446 -34.51110458 19.04969978 4.900808
3.49441123 -34.51379776 19.02602196 4.801912
2.49452949 -34.51565552 19.00841522 4.718820
1.49650478 -34.51753235 18.99730492 4.669594
0.49730384 -34.51729584 18.99188232 4.641068
-0.50138462 -34.51728058 18.99287796 4.640957
-1.50033081 -34.51633835 18.99988747 4.667988
-2.49889207 -34.51420975 19.01283455 4.716871
-3.49769402 -34.51241302 19.03162193 4.799720
-4.49604893 -34.50964737 19.05612564 4.898742
-5.49493217 -34.50563431 19.08602715 5.036898
-6.49385595 -34.50127792 19.12081146 5.184543
-7.49190187 -34.49725723 19.16048241 5.380886
-8.49051571 -34.49266052 19.20511436 5.579206
-9.48940086 -34.48813629 19.25398827 5.831225
-10.48807812 -34.48323059 19.30587196 6.086469
-11.48683453 -34.47847748 19.36088943 6.385287
-12.48534393 -34.47309494 19.41846275 6.699139
-13.48466587 -34.46907425 19.47827148 7.038680
-14.48383808 -34.46448517 19.53872299 7.411812
-15.48260689 -34.46074295 19.60049057 7.789298
-16.48174667 -34.45848083 19.66317940 8.216980
-17.48109055 -34.45620346 19.72576332 8.649855
-18.47977448 -34.45318604 19.78829193 9.103700
-19.47862816 -34.45244598 19.85159302 9.592432
-20.47851181 -34.45203400 19.91423798 10.082489
-21.47752190 -34.45183563 19.97579193 10.606382
-22.47702599 -34.45205307 20.03669548 11.149277
-23.47670364 -34.45309067 20.09655571 11.693711
-24.47619820 -34.45410919 20.15515137 12.271885
-25.47581673 -34.45557404 20.21246338 12.866275
-26.47545624 -34.45722198 20.26839638 13.460972
-27.47539330 -34.45980453 20.32288170 14.079512
-28.47519302 -34.46203995 20.37565041 14.722319
-29.47535706 -34.46478653 20.42677498 15.365881
-30.47571945 -34.46813583 20.47585297 16.016045
-31.47648239 -34.47143173 20.52260780 16.696772
-32.47723389 -34.47493744 20.56686592 17.386330
-33.47825623 -34.47842026 20.60850716 18.075997
-34.48005676 -34.48238754 20.64696121 18.774962
-35.48155975 -34.48580551 20.68202209 19.498711
-36.48339844 -34.48928452 20.71373940 20.231238
-37.48575974 -34.49264145 20.74160957 20.963927
-38.48809433 -34.49581528 20.76532745 21.699259
-39.49105835 -34.49860001 20.78465271 22.452965
-40.49394608 -34.50096130 20.79905510 23.222746
-41.49715424 -34.50259018 20.80844879 23.994324
41.49549103 -35.50251389 20.81381607 24.633034
40.49300385 -35.50120926 20.80712318 23.866385
39.49077225 -35.49920654 20.79648590 23.116518
38.48818588 -35.49658203 20.78178978 22.382498
37.48607635 -35.49358368 20.76308250 21.650561
36.48408127 -35.49035263 20.74076462 20.918421
35.48242569 -35.48687363 20.71514130 20.195538
34.48084641 -35.48321152 20.68638992 19.496670
33.47939301 -35.47935104 20.65463829 18.806746
32.47834015 -35.47555161 20.62010384 18.117049
31.47740555 -35.47177124 20.58295441 17.434176
30.47663307 -35.46781158 20.54336166 16.780304
29.47603607 -35.46402359 20.50153923 16.135796
28.47603035 -35.46096802 20.45794487 15.492205
27.47586250 -35.45755386 20.41267395 14.864131
26.47590637 -35.45477295 20.36590576 14.266735
25.47620583 -35.45203781 20.31778526 13.671049
24.47649574 -35.44986725 20.26842880 13.081659
23.47711945 -35.44796753 20.21823120 12.530451
22.47747803 -35.44664001 20.16719818 11.985848
21.47819901 -35.44570923 20.11532402 11.445920
20.47859573 -35.44525528 20.06278229 10.947456
19.47925377 -35.44531631 20.00976372 10.456402
18.48022652 -35.44557190 19.95651627 9.974374
17.48059273 -35.44646072 19.90320778 9.536108
16.48138809 -35.44799042 19.84994888 9.100810
15.48199558 -35.44972229 19.79699898 8.692034
14.48283386 -35.45218277 19.74475670 8.313492
13.48371410 -35.45447922 19.69344521 7.937905
12.48422909 -35.45692444 19.64323616 7.611866
11.48552418 -35.46068954 19.59520531 7.292523
10.48643017 -35.46397781 19.54927063 7.005556
9.48750019 -35.46676636 19.50573540 6.743621
8.48870564 -35.47058868 19.46573448 6.497857
7.48968697 -35.47332764 19.42879677 6.294828
6.49054384 -35.47616959 19.39562988 6.095067
5.49190187 -35.47908783 19.36682320 5.948988
4.49321175 -35.48109436 19.34229851 5.804295
3.49384141 -35.48275375 19.32225990 5.707410
2.49598145 -35.48446655 19.30743217 5.621255
1.49705505 -35.48493958 19.29763222 5.572097
0.49847046 -35.48599625 19.29331589 5.543775
-0.50038052 -35.48568726 19.29391098 5.543450
-1.49877179 -35.48481750 19.29975891 5.571760
-2.49757242 -35.48400116 19.31079674 5.620524
-3.49647284 -35.48173904 19.32624245 5.706171
-4.49490261 -35.47981644 19.34653282 5.802814
-5.49316311 -35.47780991 19.37193489 5.947378
-6.49194431 -35.47526550 19.40167618 6.093835
-7.49095249 -35.47151184 19.43504906 6.292760
-8.48946953 -35.46841049 19.47232246 6.495356
-9.48833466 -35.46563339 19.51307297 6.742222
-10.48744297 -35.46225739 19.55660439 7.003705
-11.48591709 -35.45902252 19.60276413 7.290661
-12.48528004 -35.45643997 19.65138817 7.611373
-13.48437500 -35.45367813 19.70117188 7.937100
-14.48346710 -35.45115662 19.75237465 8.312557
-15.48305511 -35.44950485 19.80434990 8.692069
-16.48250580 -35.44787216 19.85636711 9.101090
-17.48134995 -35.44660950 19.90900993 9.536517
-18.48069572 -35.44617081 19.96225929 9.975098
-19.48019981 -35.44605255 20.01504135 10.457515
-20.47973442 -35.44641876 20.06740379 10.949056
-21.47933578 -35.44728088 20.11928749 11.447895
-22.47907257 -35.44869614 20.17047882 11.988487
-23.47858238 -35.44989777 20.22080994 12.532912
-24.47844124 -35.45199585 20.27031898 13.084554
-25.47841072 -35.45424271 20.31869507 13.674151
-26.47824478 -35.45689774 20.36587143 14.269830
-27.47812843 -35.45931244 20.41175652 14.866875
-28.47834587 -35.46242142 20.45634270 15.494757
-29.47875595 -35.46583557 20.49923325 16.138857
-30.47933960 -35.46925354 20.54023933 16.783043
-31.47994232 -35.47279739 20.57924843 17.436503
-32.48076630 -35.47631073 20.61614799 18.119128
-33.48237228 -35.48043442 20.65044403 18.809430
-34.48362732 -35.48381042 20.68186378 19.498852
-35.48518372 -35.48743820 20.71051979 20.197724
-36.48702621 -35.49073410 20.73605919 20.920659
-37.48892593 -35.49396133 20.75822639 21.652722
-38.49120331 -35.49675369 20.77684402 22.384640
-39.49357224 -35.49940491 20.79159927 23.118548
-40.49605560 -35.50141525 20.80234718 23.868666
-41.49835205 -35.50268555 20.80920029 24.635188
41.49635315 -36.50261688 20.81439209 25.280049
40.49484634 -36.50170135 20.80977631 24.533783
39.49288177 -36.49995804 20.80226517 23.801667
38.49099350 -36.49776077 20.79159355 23.070706
37.48896408 -36.49500275 20.77766609 22.339152
36.48727417 -36.49190140 20.76055908 21.617453
35.48566818 -36.48870468 20.74058151 20.918570
34.48418427 -36.48519516 20.71788216 20.229199
33.48300934 -36.48150253 20.69263077 19.539814
32.48179626 -36.47760010 20.66494179 18.855425
31.48096466 -36.47365952 20.63500023 18.198264
30.48020554 -36.46976089 20.60302734 17.553849
29.47985077 -36.46581268 20.56924057 16.909598
28.47918701 -36.46165466 20.53363609 16.274558
27.47912788 -36.45822525 20.49661064 15.672715
26.47913551 -36.45470810 20.45832443 15.076323
25.47916794 -36.45159912 20.41898918 14.481330
24.47935867 -36.44807434 20.37865257 13.917723
23.47960663 -36.44561005 20.33745003 13.371946
22.48005104 -36.44338226 20.29545212 12.826512
21.48039436 -36.44143295 20.25283241 12.309698
20.48097992 -36.43974304 20.20976448 11.816524
19.48134613 -36.43856430 20.16621017 11.323811
18.48189926 -36.43805695 20.12248993 10.866180
17.48258209 -36.43764496 20.07874489 10.427947
16.48295021 -36.43749237 20.03493118 9.992511
15.48350143 -36.43813705 19.99133301 9.603419
14.48418427 -36.43872833 19.94823074 9.221685
13.48482323 -36.43999863 19.90598106 8.859696
12.48572350 -36.44155121 19.86491394 8.535824
11.48613071 -36.44254684 19.82484627 8.212428
10.48727798 -36.44451141 19.78684425 7.938651
9.48824310 -36.44651031 19.75123596 7.673475
8.48904800 -36.44794083 19.71786690 7.436864
7.49032354 -36.45002747 19.68756676 7.230690
6.49137163 -36.45167160 19.66035461 7.035346
5.49239254 -36.45322800 19.63640976 6.887923
4.49376440 -36.45444489 19.61625099 6.741577
3.49502444 -36.45558548 19.59992599 6.648023
2.49614573 -36.45580292 19.58736420 6.558786
1.49718952 -36.45724106 19.57933235 6.513114
0.49869779 -36.45707321 19.57505417 6.483131
-0.49953157 -36.45712280 19.57557487 6.483172
-1.49848247 -36.45699310 19.58045387 6.512833
-2.49695611 -36.45625305 19.58933258 6.559184
-3.49557471 -36.45551300 19.60260963 6.647839
-4.49421930 -36.45387650 19.61966515 6.740880
-5.49305487 -36.45244217 19.64042854 6.887035
-6.49168348 -36.45090485 19.66493797 7.034418
-7.49013901 -36.44943619 19.69314575 7.229836
-8.48960209 -36.44757843 19.72414780 7.436390
-9.48847103 -36.44530869 19.75745773 7.672181
-10.48745346 -36.44378662 19.79351616 7.937824
-11.48710346 -36.44267273 19.83145905 8.212712
-12.48583508 -36.44136810 19.87090302 8.535595
-13.48543167 -36.43991089 19.91197395 8.859750
-14.48477554 -36.43931961 19.95388603 9.222427
-15.48436928 -36.43895340 19.99635315 9.604502
-16.48361588 -36.43834686 20.03928185 9.993581
-17.48313141 -36.43861771 20.08263779 10.429093
-18.48258781 -36.43954849 20.12607574 10.867863
-19.48240089 -36.44040680 20.16939163 11.325981
-20.48194313 -36.44175339 20.21235847 11.818795
-21.48182297 -36.44376755 20.25488472 12.312475
-22.48135757 -36.44548416 20.29688835 12.829019
-23.48137474 -36.44797134 20.33843231 13.374913
-24.48139763 -36.45059967 20.37899399 13.920959
-25.48115730 -36.45349121 20.41864967 14.484016
-26.48129082 -36.45646667 20.45738220 15.078988
-27.48148155 -36.45995712 20.49508476 15.675455
-28.48180580 -36.46339798 20.53148651 16.277470
-29.48226738 -36.46706390 20.56641960 16.912011
-30.48280716 -36.47072601 20.59976959 17.556141
-31.48360252 -36.47448730 20.63146973 18.200463
-32.48491287 -36.47858429 20.66107178 18.858103
-33.48589706 -36.48209381 20.68829918 19.542071
-34.48718643 -36.48568726 20.71337700 20.231453
-35.48868942 -36.48909760 20.73587608 20.920760
-36.49024963 -36.49233246 20.75566673 21.619688
-37.49197388 -36.49516678 20.77265549 22.341280
-38.49388504 -36.49795151 20.78661346 23.072770
-39.49592972 -36.50011063 20.79738808 23.803826
-40.49784851 -36.50188065 20.80501366 24.535956
-41.49935913 -36.50275803 20.80981064 25.282257
41.49723816 -37.50278473 20.81479645 25.948777
40.49604416 -37.50204086 20.81178856 25.218510
39.49479675 -37.50077820 20.80678558 24.488820
38.49331665 -37.49891663 20.79950523 23.758492
37.49175262 -37.49650955 20.78975487 23.038248
36.49015427 -37.49371719 20.77746010 22.339283
35.48870468 -37.49055099 20.76261520 21.650458
34.48748779 -37.48734665 20.74554253 20.961691
33.48626709 -37.48373795 20.72631264 20.276568
32.48546600 -37.48008728 20.70512390 19.616162
31.48447418 -37.47599411 20.68210602 18.971684
30.48394012 -37.47198486 20.65737915 18.327578
29.48318291 -37.46778488 20.63119125 17.688414
28.48299026 -37.46360397 20.60361290 17.080248
27.48253250 -37.45939636 20.57465553 16.483277
26.48242378 -37.45534515 20.54460335 15.886605
25.48245049 -37.45145798 20.51367950 15.309252
24.48258400 -37.44823074 20.48209572 14.762094
23.48271370 -37.44444275 20.44968414 14.215274
22.48285866 -37.44093704 20.41658401 13.679440
21.48314667 -37.43817902 20.38286209 13.182196
20.48351669 -37.43603897 20.34874535 12.688491
19.48413849 -37.43353653 20.31444740 12.205381
18.48427963 -37.43127060 20.27977371 11.762845
17.48487473 -37.43003082 20.24500275 11.323547
16.48523331 -37.42885208 20.21025276 10.904090
15.48575306 -37.42759705 20.17549515 10.519883
14.48624134 -37.42747879 20.14113617 10.136850
13.48659611 -37.42691422 20.10709763 9.793292
12.48737526 -37.42698288 20.07404137 9.467112
11.48800850 -37.42702484 20.04226685 9.151697
10.48859119 -37.42734146 20.01166534 8.882881
9.48961926 -37.42778778 19.98292160 8.615065
8.49044228 -37.42852402 19.95631599 8.390660
7.49125290 -37.42884064 19.93181229 8.181428
6.49214745 -37.42956924 19.90983009 7.994482
5.49350357 -37.43007278 19.89071083 7.844972
4.49435186 -37.43048096 19.87452126 7.700489
3.49552774 -37.43062592 19.86141968 7.608321
2.49632835 -37.43117905 19.85151100 7.518650
1.49782085 -37.43097305 19.84444237 7.474440
0.49906483 -37.43132782 19.84119606 7.444704
-0.49981496 -37.43136215 19.84134102 7.444759
-1.49829566 -37.43138885 19.84500694 7.474859
-2.49717474 -37.43129349 19.85217476 7.518828
-3.49550128 -37.43084717 19.86276054 7.608514
-4.49459505 -37.43094254 19.87681770 7.700939
-5.49318886 -37.43021011 19.89373398 7.845019
-6.49219704 -37.42963791 19.91364098 7.994516
-7.49125004 -37.42911148 19.93615723 8.181658
-8.49036694 -37.42897797 19.96111870 8.391064
-9.48953056 -37.42866135 19.98817635 8.615874
-10.48900127 -37.42837143 20.01688004 8.883991
-11.48810768 -37.42784500 20.04699516 9.152535
-12.48801613 -37.42762756 20.07846260 9.467966
-13.48699951 -37.42840958 20.11102676 9.794881
-14.48702049 -37.42901611 20.14423561 10.138611
-15.48612118 -37.42937088 20.17787170 10.521702
-16.48588371 -37.43066025 20.21224976 10.906048
-17.48565102 -37.43194962 20.24658012 11.325646
-18.48544502 -37.43356323 20.28076553 11.765439
-19.48488235 -37.43575668 20.31499290 12.207710
-20.48487473 -37.43834305 20.34906769 12.691174
-21.48456001 -37.44053650 20.38273430 13.184939
-22.48455048 -37.44363785 20.41609764 13.682610
-23.48444557 -37.44670868 20.44886017 14.218090
-24.48441887 -37.44998169 20.48096657 14.764522
-25.48463058 -37.45349884 20.51227760 15.312109
-26.48474884 -37.45727158 20.54275513 15.889470
-27.48507690 -37.46106720 20.57230186 16.486048
-28.48546219 -37.46502304 20.60082817 17.082756
-29.48593712 -37.46893311 20.62816811 17.690915
-30.48652267 -37.47278595 20.65422630 18.329731
-31.48753166 -37.47689056 20.67868233 18.974205
-32.48838043 -37.48070145 20.70125008 19.618365
-33.48941040 -37.48420715 20.72217178 20.278876
-34.49061203 -37.48775101 20.74113083 20.963969
-35.49195480 -37.49104691 20.75791550 21.652880
-36.49327087 -37.49392319 20.77248383 22.341395
-37.49472046 -37.49671173 20.78474808 23.040318
-38.49630356 -37.49902725 20.79458237 23.760577
-39.49784851 -37.50091934 20.80197716 24.490981
-40.49912262 -37.50218582 20.80711365 25.220700
-41.50024414 -37.50292587 20.81024170 25.950936
41.49773026 -38.50286865 20.81505203 26.633280
40.49708557 -38.50239944 20.81323624 25.904641
39.49622726 -38.50147247 20.81014252 25.175574
38.49520111 -38.50006866 20.80554008 24.457148
37.49407959 -38.49810028 20.79926682 23.758648
36.49295044 -38.49575806 20.79113388 23.070862
35.49168777 -38.49288177 20.78108406 22.382538
34.49068069 -38.48984909 20.76910019 21.697234
33.48976135 -38.48653030 20.75553131 21.033875
32.48871613 -38.48280716 20.74036217 20.389225
31.48820686 -38.47904205 20.72383118 19.745619
30.48737335 -38.47483063 20.70601463 19.103863
29.48708534 -38.47082520 20.68700218 18.488757
28.48649979 -38.46647644 20.66698265 17.891861
27.48636436 -38.46198273 20.64595795 17.295130
26.48606682 -38.45761871 20.62401772 16.707529
25.48599434 -38.45331573 20.60125160 16.154250
24.48611259 -38.44903564 20.57780075 15.607275
23.48610115 -38.44514465 20.55390930 15.062533
22.48635101 -38.44168472 20.52943230 14.553166
21.48660088 -38.43760300 20.50448227 14.057901
20.48692322 -38.43363953 20.47917557 13.563390
19.48694038 -38.43070602 20.45358658 13.104883
18.48757935 -38.42806244 20.42782974 12.664395
17.48752785 -38.42476654 20.40173531 12.224528
16.48815727 -38.42253494 20.37554550 11.827189
15.48822498 -38.42074203 20.34935951 11.442246
14.48871422 -38.41859436 20.32304382 11.064758
13.48917675 -38.41698456 20.29721451 10.733577
12.48953819 -38.41550446 20.27185822 10.405529
11.49032688 -38.41458893 20.24751282 10.105889
10.49074459 -38.41302872 20.22425079 9.835492
9.49107647 -38.41287231 20.20203018 9.570187
8.49211979 -38.41219711 20.18129349 9.354418
7.49280596 -38.41189575 20.16259575 9.144076
6.49375105 -38.41094208 20.14577293 8.965600
5.49439526 -38.41028595 20.13121414 8.814375
4.49493790 -38.41021347 20.11860466 8.674395
3.49625015 -38.41059113 20.10842133 8.583753
2.49726224 -38.40986633 20.10071945 8.492941
1.49818766 -38.40941620 20.09567642 8.451371
0.49893734 -38.40927124 20.09289932 8.421017
-0.49994603 -38.40990067 20.09273911 8.421674
-1.49873018 -38.41020966 20.09533310 8.452176
-2.49733400 -38.41016769 20.10079956 8.493249
-3.49682713 -38.41070938 20.10894585 8.583929
-4.49520922 -38.41089249 20.11947632 8.675110
-5.49432087 -38.41134262 20.13276863 8.815432
-6.49354315 -38.41212463 20.14810371 8.966776
-7.49291229 -38.41305161 20.16534424 9.145277
-8.49175835 -38.41337204 20.18442917 9.355552
-9.49150085 -38.41403961 20.20511246 9.571488
-10.49089813 -38.41505814 20.22696304 9.837550
-11.49064827 -38.41647339 20.25003433 10.107851
-12.48992062 -38.41811752 20.27392387 10.408178
-13.48993015 -38.41919708 20.29833412 10.735945
-14.48907089 -38.42053604 20.32352638 11.066716
-15.48924160 -38.42237854 20.34920311 11.444141
-16.48914719 -38.42506027 20.37469482 11.829873
-17.48867226 -38.42778778 20.40030670 12.227701
-18.48822975 -38.43017960 20.42612648 12.666524
-19.48843765 -38.43303299 20.45175362 13.107565
-20.48804283 -38.43602753 20.47714043 13.565948
