//X Y Z C2M_signed_distances
20.04187202 -14.25969791 12.34892178 -0.522299
19.03799057 -14.37457752 11.29492664 -0.587028
17.95552444 -14.49623775 10.18430233 -0.645303
16.83773613 -14.40100670 9.01640606 -0.708619
15.64310551 -14.41296387 8.07770538 -0.801456
14.47202587 -14.24935722 7.07538700 -0.822138
13.40835285 -14.19079494 6.29529476 -0.806460
12.36944008 -14.11714649 5.62467480 -0.791476
11.31106853 -14.08702850 5.05813122 -0.773754
10.27230930 -14.02005100 4.55417824 -0.778422
9.26260090 -13.99423409 4.12082863 -0.742489
8.25917721 -13.97476959 3.78940201 -0.760332
7.23592567 -13.86325645 3.47611618 -0.774459
6.17184734 -13.84784889 3.20687675 -0.770255
5.19687223 -13.84729004 3.00502396 -0.760298
4.17296934 -13.77116966 2.81144142 -0.755422
3.13531327 -13.74605942 2.64523125 -0.728780
2.15932393 -13.71673298 2.54709435 -0.731063
1.12773061 -13.70672703 2.49065781 -0.737777
0.13758798 -13.66395092 2.45253372 -0.739169
41.43232346 -14.49711037 20.78843689 13.930981
40.41452408 -14.49383259 20.66223907 12.962385
39.40993500 -14.48940277 20.50710297 12.005089
38.41291428 -14.48576069 20.33260345 11.058691
37.42221832 -14.48292065 20.14426422 10.130767
36.43322372 -14.48069668 19.94368553 9.215291
35.44768906 -14.48044014 19.73192406 8.308831
34.46197510 -14.48130226 19.50794220 7.410509
33.48017883 -14.48341084 19.27206421 6.528609
32.49924088 -14.48821068 19.02384758 5.668314
31.52090454 -14.49539948 18.76235199 4.859620
30.54417038 -14.50433826 18.48596001 4.113861
29.56858063 -14.51675701 18.19254875 3.462590
28.59582138 -14.53590584 17.88005447 2.892982
27.62626266 -14.55816174 17.54573441 2.342749
26.65758514 -14.58791924 17.18377876 1.830148
25.69372940 -14.62367249 16.78669930 1.343212
24.73951530 -14.67147064 16.36279678 0.882624
23.77474213 -14.73871613 15.88682461 0.467577
22.81072426 -14.81811714 15.32183933 0.116978
21.86824417 -14.91189671 14.68311119 -0.172391
20.89628601 -15.01276207 13.92994499 -0.397222
19.95532799 -15.16382122 13.03396797 -0.485680
18.98646736 -15.35951614 12.06651497 -0.524178
18.00070763 -15.41973972 11.06462955 -0.594596
16.86929703 -15.56376839 10.01932812 -0.655865
15.77880859 -15.42264748 8.93698692 -0.733248
14.54712391 -15.37194347 7.99928856 -0.827845
13.43280506 -15.26615047 7.09376431 -0.820121
12.37137890 -15.20789719 6.35509109 -0.798324
11.31860447 -15.14100456 5.70405769 -0.763327
10.28759861 -15.06655216 5.16786480 -0.757327
9.24034595 -14.99615574 4.71987152 -0.772814
8.21993637 -14.96939754 4.30759811 -0.735322
7.23570871 -14.99145889 4.05723572 -0.760854
6.15513706 -14.90295315 3.74719238 -0.778182
5.17896128 -14.86568260 3.49872780 -0.746746
4.15983629 -14.84200478 3.35035324 -0.775701
3.12135005 -14.78998184 3.18344307 -0.774673
2.12746906 -14.74920750 3.06216240 -0.767638
1.09683347 -14.72575665 2.97897911 -0.748976
0.13135152 -14.70695400 2.95480347 -0.751840
-0.90901858 -14.67655659 2.97998619 -0.774885
-1.93903816 -14.63110447 2.98877907 -0.759178
-2.92922449 -14.59741592 3.05828667 -0.766956
-3.94159627 -14.60908031 3.19248772 -0.771807
-4.96737337 -14.53882313 3.31936836 -0.769913
-6.00692415 -14.54008293 3.52397728 -0.770375
-7.02048016 -14.55513954 3.73959541 -0.751833
-8.01072216 -14.50085068 4.01569176 -0.768888
-9.10802555 -14.43435097 4.32290459 -0.755853
-10.04238224 -14.53235340 4.75351143 -0.771341
-11.19183350 -14.46680641 5.22929287 -0.776771
-12.08907318 -14.41886997 5.68151474 -0.801689
-13.26940918 -14.43144989 6.39128494 -0.831127
-14.30288410 -14.54770756 7.06355286 -0.747761
-15.34980679 -14.62010479 8.00364780 -0.811738
-16.47639084 -14.68423176 8.94403076 -0.731437
-17.53581429 -14.74435425 9.99656010 -0.679633
-18.54920959 -14.80724049 11.13453579 -0.604380
-19.44705963 -14.76724339 12.07010460 -0.528228
-20.29652405 -14.72433853 13.06999874 -0.499687
-21.17687035 -14.67155170 13.96516037 -0.387988
-22.08153725 -14.62069321 14.71000290 -0.175356
-22.98201752 -14.60182381 15.33944321 0.124638
-23.90987206 -14.57303715 15.88155174 0.491337
-24.82871437 -14.55718422 16.35060501 0.905091
-25.76556587 -14.54085541 16.78152084 1.362732
-26.71318817 -14.52417183 17.17396355 1.848542
-27.66554832 -14.51396561 17.53554153 2.360176
-28.62526512 -14.50278187 17.87202072 2.907269
-29.59079361 -14.49469471 18.18647766 3.474556
-30.55949020 -14.48889351 18.48160553 4.121983
-31.53146935 -14.48505497 18.76024628 4.864962
-32.50741959 -14.48261356 19.02370834 5.673616
-33.48529816 -14.48022175 19.27278519 6.532016
-34.46707153 -14.48076534 19.50905228 7.414928
-35.44951630 -14.48102760 19.73252487 8.310724
-36.43516922 -14.48273182 19.94489098 9.217860
-37.42330933 -14.48563194 20.14535332 10.132821
-38.41499329 -14.48826790 20.33296204 11.061522
-39.41206360 -14.49167538 20.50607491 12.007797
-40.41765594 -14.49440765 20.65967178 12.965398
-41.43872070 -14.49801922 20.78184128 13.936943
41.43580627 -15.49707031 20.79176903 14.261935
40.41831207 -15.49308777 20.67249298 13.303600
39.41275406 -15.48943233 20.52502632 12.365024
38.41536713 -15.48555946 20.35920715 11.436567
37.42234039 -15.48227215 20.17938995 10.513760
36.43354416 -15.48076153 19.98847008 9.598130
35.44432831 -15.47916698 19.78607750 8.686232
34.45878983 -15.48026562 19.57273293 7.788037
33.47357941 -15.48239994 19.34761047 6.917910
32.49181747 -15.48615456 19.11114311 6.071449
31.51030922 -15.49180603 18.86207581 5.250828
30.53071594 -15.50076389 18.59935760 4.474115
29.55312729 -15.51246834 18.32147789 3.771148
28.57622528 -15.52784252 18.02515984 3.193776
27.60506821 -15.54900646 17.71192932 2.650959
26.62984467 -15.57649422 17.37262154 2.121583
25.66585732 -15.60944366 17.01118279 1.619503
24.69898415 -15.65295601 16.62470245 1.155756
23.71778679 -15.71500206 16.17868805 0.721895
22.77625084 -15.78168297 15.69561958 0.338729
21.79555130 -15.87732697 15.11810970 0.022604
20.85938454 -15.97641468 14.49765968 -0.235484
19.84887123 -16.06716919 13.71331024 -0.449435
18.93569756 -16.18855476 12.84939575 -0.515664
17.89941025 -16.42291641 11.89487171 -0.544486
16.97574997 -16.43104172 10.96340370 -0.606734
15.78475189 -16.56764030 9.94041443 -0.668749
14.71737957 -16.51076889 8.97401047 -0.714799
13.48928547 -16.37055206 8.03101063 -0.812175
12.40045357 -16.24605942 7.20181751 -0.827296
11.35689640 -16.14834213 6.51036167 -0.815152
10.23643970 -16.13188934 5.88722992 -0.768501
9.27490520 -16.08050728 5.41701317 -0.768959
8.17776489 -16.02181625 4.96673965 -0.749113
7.22932720 -15.95882702 4.59665680 -0.730640
6.16354465 -15.95130539 4.34280205 -0.752021
5.14382505 -15.90458584 4.09072304 -0.749836
4.10989952 -15.90714169 3.89062881 -0.737569
3.14093423 -15.87044621 3.74844933 -0.751874
2.11482048 -15.80337429 3.64044571 -0.771082
1.07859218 -15.75365257 3.55042267 -0.766693
0.08513658 -15.72661877 3.51162910 -0.763731
-0.96449488 -15.74098206 3.52052116 -0.749866
-1.92546833 -15.70901775 3.54851151 -0.747554
-2.96929741 -15.66537952 3.63715935 -0.767705
-3.99097419 -15.63875008 3.73769760 -0.760891
-4.98660469 -15.61969948 3.91462708 -0.777322
-6.05146456 -15.54498959 4.10303307 -0.781178
-7.08916092 -15.54639626 4.31000710 -0.736647
-8.04390430 -15.54470921 4.61897850 -0.760395
-9.15817451 -15.53217220 5.04164600 -0.781771
-10.14403248 -15.45816612 5.37852859 -0.777310
-11.21049500 -15.51105690 5.90820217 -0.766387
-12.23054600 -15.58268452 6.52291203 -0.778320
-13.26216412 -15.58134460 7.22619343 -0.822263
-14.40703869 -15.61026382 8.03854656 -0.801939
-15.44705677 -15.71829319 8.87314892 -0.713455
-16.52083015 -15.82494450 9.92517090 -0.667760
-17.51985931 -15.87743759 10.98956299 -0.604528
-18.45175552 -15.82812119 11.92546177 -0.544833
-19.30721474 -15.75054455 12.84852600 -0.512598
-20.19644737 -15.69631767 13.75330639 -0.433350
-21.08615494 -15.66417789 14.48754406 -0.239078
-21.98350716 -15.63505077 15.14852810 0.011512
-22.92583466 -15.59172916 15.70688629 0.349673
-23.84792709 -15.58759022 16.17846298 0.751993
-24.78470612 -15.56370449 16.60438728 1.183214
-25.72174072 -15.53942204 16.99834061 1.636709
-26.68084526 -15.52431011 17.36815643 2.138811
-27.63797760 -15.51102638 17.70512009 2.662420
-28.60240173 -15.50088787 18.02231026 3.203192
-29.57308197 -15.49276257 18.31925583 3.779842
-30.54502106 -15.48826504 18.59779930 4.481622
-31.52026367 -15.48365307 18.86189461 5.256120
-32.49825668 -15.48017597 19.11227989 6.074420
-33.47945404 -15.48013020 19.34968376 6.921983
-34.46214294 -15.47928047 19.57442474 7.790602
-35.44733047 -15.48059559 19.78793907 8.689505
-36.43465424 -15.48279095 19.99003983 9.599931
-37.42448807 -15.48512554 20.18064880 10.516858
-38.41726303 -15.48805523 20.35932350 11.439277
-39.41458511 -15.49091625 20.52434731 12.367252
-40.42292404 -15.49532986 20.67002678 13.308582
-41.44159317 -15.49769402 20.78478432 14.267193
41.43901825 -16.49674416 20.79516792 14.632999
40.42279434 -16.49335480 20.68306351 13.688266
39.41540146 -16.48852348 20.54344177 12.750241
38.41763687 -16.48541832 20.38568878 11.821945
37.42375183 -16.48212051 20.21511841 10.898283
36.43236542 -16.47940826 20.03304291 9.986367
35.44362640 -16.47953987 19.84092331 9.096231
34.45464325 -16.47914314 19.63773346 8.213477
33.46895599 -16.48058891 19.42400742 7.342523
32.48412323 -16.48404503 19.19946098 6.485555
31.50096130 -16.48907089 18.96363258 5.651542
30.51804733 -16.49700165 18.71402550 4.872390
29.53923607 -16.50710678 18.45169449 4.151549
28.55913162 -16.52277946 18.17336845 3.517506
27.58255768 -16.54196930 17.87701797 2.960667
26.60944748 -16.56481171 17.56385231 2.438542
25.63247871 -16.59836388 17.22792244 1.936232
24.66057014 -16.64240837 16.86677361 1.455748
23.68682671 -16.69264412 16.46232224 1.012805
22.73127365 -16.74694633 16.03195381 0.615153
21.75319099 -16.80775833 15.53222847 0.244828
20.79842377 -16.89607048 14.97549248 -0.048448
19.80479240 -17.04541397 14.35311604 -0.281392
18.82474327 -17.16667557 13.61299133 -0.449374
17.87834167 -17.22472763 12.74434471 -0.534796
16.86411858 -17.44568825 11.87674046 -0.555989
15.88843155 -17.52213669 10.95288277 -0.578089
14.76176357 -17.54755211 9.98427010 -0.654976
13.66073608 -17.47249413 9.09071255 -0.738511
12.45061493 -17.38850975 8.22481441 -0.810463
11.34033489 -17.32670784 7.47137642 -0.821151
10.31499100 -17.19709587 6.78892899 -0.797089
9.23849678 -17.10452271 6.19381142 -0.782945
8.23373032 -17.03943062 5.73094463 -0.770006
7.14533615 -17.02110863 5.34711456 -0.774730
6.15119171 -16.98249245 5.00734901 -0.736884
5.12618399 -16.95720863 4.76147461 -0.746211
4.11358023 -16.88540268 4.50059509 -0.733247
3.12500048 -16.85553551 4.34601402 -0.732162
2.05213428 -16.84777069 4.25440788 -0.747897
1.08667934 -16.84337616 4.19090462 -0.746363
0.03121772 -16.79862022 4.15132523 -0.756551
-0.97503281 -16.73074341 4.11491203 -0.748022
-1.96644986 -16.70393562 4.15483665 -0.749860
-2.99243855 -16.67811966 4.24845505 -0.761334
-4.06229687 -16.64931488 4.37674904 -0.764654
-5.04792452 -16.66520309 4.53083801 -0.743161
-6.03795862 -16.63836479 4.75775719 -0.753077
-7.12771893 -16.54105186 5.02528763 -0.780553
-8.17623520 -16.60330009 5.35876465 -0.750549
-9.13076687 -16.54454803 5.71783733 -0.777401
-10.27967739 -16.61511040 6.28311253 -0.792778
-11.18228149 -16.59557533 6.73595238 -0.787367
-12.36839581 -16.57574463 7.41508293 -0.799497
-13.36194611 -16.74642181 8.19219112 -0.764900
-14.44605637 -16.85088348 9.06105328 -0.704394
-15.50319481 -16.90701675 9.97684669 -0.644692
-16.47061539 -16.90420532 10.96073246 -0.626140
-17.43872452 -16.86079407 11.86745644 -0.556833
-18.28872871 -16.81010437 12.73683929 -0.516527
-19.18376350 -16.75309944 13.63835049 -0.468779
-20.06540108 -16.70245743 14.35758305 -0.305218
-21.00549889 -16.65832138 15.01346874 -0.057064
-21.91239738 -16.63322449 15.55083466 0.250398
-22.85841179 -16.61461639 16.04505348 0.626128
-23.79580879 -16.57329559 16.45726204 1.031797
-24.73580551 -16.54821968 16.84902000 1.472548
-25.68961716 -16.53690147 17.21809769 1.951772
-26.64693642 -16.52163315 17.55794716 2.447138
-27.61258125 -16.50886345 17.87592506 2.969238
-28.58294868 -16.50001907 18.17313004 3.525807
-29.55478096 -16.49233437 18.45177078 4.157350
-30.53197479 -16.48480415 18.71538353 4.877954
-31.50945473 -16.48204613 18.96501923 5.655550
-32.49075699 -16.48013687 19.20265770 6.489382
-33.47348022 -16.47817230 19.42747879 7.345253
-34.45850372 -16.47876549 19.64110565 8.216631
-35.44592285 -16.48054886 19.84356308 9.098692
-36.43479538 -16.48260117 20.03500366 9.989915
-37.42533493 -16.48470688 20.21615219 10.900756
-38.41975784 -16.48747635 20.38608360 11.824703
-39.41841125 -16.49143791 20.54253960 12.754095
-40.42685699 -16.49443245 20.67991257 13.692270
-41.44505310 -16.49761391 20.78799248 14.638511
41.44348907 -17.49670219 20.79899406 15.019443
40.42569351 -17.49241257 20.69361115 14.073317
39.41920471 -17.48945808 20.56181526 13.138289
38.41970062 -17.48457146 20.41249847 12.219048
37.42498016 -17.48171043 20.25063705 11.317745
36.43277359 -17.47943687 20.07831764 10.422188
35.44113541 -17.47780418 19.89528656 9.530184
34.45283890 -17.47830582 19.70316696 8.646359
33.46395111 -17.47936249 19.50089836 7.770324
32.47787857 -17.48140526 19.28857803 6.926890
31.49185181 -17.48698044 19.06500435 6.106163
30.50817680 -17.49317360 18.82964897 5.310956
29.52556419 -17.50400162 18.58237267 4.556012
28.54318237 -17.51624107 18.31940460 3.876895
27.56532288 -17.53301811 18.04322624 3.311081
26.58483696 -17.55628204 17.75030518 2.778739
25.60823822 -17.58468437 17.43837357 2.261659
24.62886620 -17.61799622 17.09943962 1.784237
23.65763664 -17.65881157 16.73568535 1.333817
22.68625259 -17.71986771 16.34636116 0.909688
21.71322441 -17.79813766 15.91837788 0.538646
20.74317741 -17.86757851 15.44831467 0.195030
19.75534821 -17.92028618 14.86401749 -0.098106
18.79244995 -18.02830315 14.24180317 -0.299573
17.80132675 -18.20046043 13.58477211 -0.447560
16.81179428 -18.29717255 12.73526382 -0.513355
15.82392788 -18.43993187 11.91696358 -0.544558
14.81793213 -18.51083755 11.11146641 -0.614576
13.66729546 -18.58699989 10.21883583 -0.671078
12.58843899 -18.55201912 9.34652996 -0.706363
11.44546795 -18.43673134 8.50071144 -0.752030
10.38154602 -18.32435989 7.82092857 -0.789621
9.28075886 -18.23266983 7.20088005 -0.808534
8.19411182 -18.16302109 6.67899227 -0.806595
7.18729019 -18.07458305 6.21506119 -0.792915
6.14194870 -18.00116539 5.83199978 -0.786181
5.11054945 -17.94111252 5.51118851 -0.779333
4.09330606 -17.95112610 5.29064941 -0.754063
3.07450819 -17.92682838 5.11706448 -0.747662
2.04826880 -17.89687920 4.97390556 -0.737489
1.03057110 -17.84364891 4.85764027 -0.728780
0.02633399 -17.80628014 4.82067490 -0.740354
-0.98338753 -17.77990150 4.84653664 -0.762099
-2.03873253 -17.75947952 4.89191628 -0.758410
-3.05381894 -17.76579094 4.98029900 -0.739063
-4.02301455 -17.70958328 5.11278534 -0.762324
-5.10593414 -17.61776352 5.25946140 -0.770237
-6.08262873 -17.61676788 5.50131130 -0.779739
-7.19673443 -17.66320229 5.88267422 -0.786156
-8.21852684 -17.63373184 6.19101906 -0.774724
-9.19558811 -17.69139290 6.69003391 -0.808021
-10.30492783 -17.64628220 7.12762356 -0.770063
-11.27963448 -17.72536087 7.78698158 -0.803938
-12.36172962 -17.84468842 8.58238125 -0.799021
-13.43967152 -17.88216782 9.25732899 -0.687190
-14.48383045 -17.95218849 10.14286995 -0.629388
-15.43607807 -17.99098587 11.03056717 -0.576256
-16.37143898 -17.92337990 11.92907333 -0.571139
-17.28001022 -17.87374878 12.79139519 -0.528063
-18.16321182 -17.81159592 13.56416893 -0.454862
-19.06371307 -17.75326347 14.27584553 -0.308211
-19.98745728 -17.70763016 14.91400719 -0.096321
-20.90195465 -17.65201569 15.45691109 0.174082
-21.86717987 -17.62543869 15.93920708 0.534209
-22.79394531 -17.59885979 16.34295464 0.919434
-23.73764610 -17.56879616 16.73667526 1.340994
-24.69599342 -17.55062866 17.10089874 1.794155
-25.65629768 -17.52986526 17.43388176 2.271395
-26.61936569 -17.51751709 17.74830437 2.785625
-27.58889580 -17.50613594 18.04480362 3.314419
-28.56377220 -17.49693108 18.32252502 3.881680
-29.53967667 -17.48954582 18.58416748 4.560388
-30.51808929 -17.48444748 18.83333015 5.314387
-31.50050163 -17.47969437 19.06938553 6.109402
-32.48305511 -17.47788239 19.29310989 6.929190
-33.46877289 -17.47827721 19.50607300 7.773782
-34.45603180 -17.47896194 19.70772171 8.649360
-35.44470978 -17.48003578 19.89882088 9.534336
-36.43478394 -17.48178291 20.08019829 10.425036
-37.42692566 -17.48432922 20.25186348 11.320668
-38.42226028 -17.48749924 20.41283417 12.222616
-39.42278290 -17.49083710 20.56042480 13.142058
-40.42975998 -17.49458122 20.68995857 14.077719
-41.44941330 -17.49695969 20.79174042 15.024624
41.44738770 -18.49637032 20.80280876 15.408614
40.42929077 -18.49352264 20.70402527 14.477121
39.42277145 -18.48821640 20.57994080 13.564179
38.42229080 -18.48495293 20.43928719 12.658452
37.42646408 -18.48121071 20.28635788 11.757340
36.43264008 -18.47877884 20.12308311 10.859950
35.44105911 -18.47729301 19.95065498 9.969048
34.44955444 -18.47691345 19.76847649 9.099615
33.46105194 -18.47780800 19.57776451 8.246923
32.47177124 -18.48056412 19.37726212 7.402024
31.48459053 -18.48371887 19.16614532 6.570607
30.49921799 -18.48974228 18.94534302 5.763594
29.51227760 -18.49852180 18.71124840 5.009450
28.52988243 -18.51095581 18.46552086 4.305344
27.54765701 -18.52525330 18.20728493 3.672772
26.56471062 -18.54581642 17.93368721 3.131515
25.58479500 -18.56948662 17.64352417 2.627568
24.60463524 -18.60187340 17.33410645 2.138034
23.62945557 -18.63621902 17.00629807 1.666898
22.63796425 -18.68634796 16.63661766 1.243603
21.68375015 -18.73615265 16.25450706 0.851817
20.69970131 -18.80580139 15.84492493 0.481309
19.72283745 -18.89662170 15.41164970 0.159856
18.71619987 -18.97121811 14.87001991 -0.118753
17.74407196 -19.04563141 14.23287487 -0.305860
16.75925827 -19.19191742 13.61758614 -0.444298
15.76317978 -19.31459236 12.86738777 -0.517476
14.74221420 -19.46393585 12.12183762 -0.551339
13.72735977 -19.55109024 11.33917809 -0.586404
12.65099716 -19.58966827 10.54360580 -0.641158
11.56611633 -19.55171204 9.73799610 -0.695024
10.44331360 -19.47705841 8.98984718 -0.735852
9.32385349 -19.36024094 8.32036495 -0.801014
8.25577641 -19.27779198 7.71751976 -0.787920
7.19831419 -19.22739029 7.25458431 -0.793654
6.19100571 -19.13399506 6.86610317 -0.811376
5.09590578 -19.07376480 6.50327873 -0.813032
4.07362604 -19.03596878 6.19306374 -0.769453
3.07337475 -18.96732712 5.96834278 -0.759596
2.02589464 -18.90392685 5.81298256 -0.772413
1.02748752 -18.90263176 5.72537804 -0.759216
0.01043745 -18.83263779 5.65476513 -0.770715
-1.07151079 -18.80521584 5.64487648 -0.762633
-2.03293514 -18.80251884 5.71519279 -0.768162
-3.06966805 -18.72825813 5.77808857 -0.770339
-4.10163116 -18.75182533 5.93522739 -0.746489
-5.08981371 -18.77323723 6.20916748 -0.787555
-6.20359278 -18.76469803 6.53731918 -0.820404
-7.16812038 -18.74566269 6.81300640 -0.808399
-8.21811295 -18.71780205 7.21753502 -0.830794
-9.30722713 -18.74193001 7.68580055 -0.796419
-10.28227139 -18.89399147 8.33042240 -0.792867
-11.37440395 -18.91992378 8.96590519 -0.743197
-12.38959885 -18.98777580 9.62469101 -0.664231
-13.41777897 -19.03417587 10.51254082 -0.648310
-14.38694477 -19.05223274 11.32161045 -0.589882
-15.32436466 -19.00828743 12.09044743 -0.534588
-16.22163963 -18.92500687 12.87370300 -0.518315
-17.13832092 -18.81381416 13.58492088 -0.452921
-18.03509331 -18.76192474 14.26086807 -0.320223
-18.99386787 -18.71712494 14.88203239 -0.112878
-19.90357780 -18.69062996 15.38640022 0.166650
-20.83565903 -18.66852570 15.86500740 0.479789
-21.79735184 -18.61697197 16.27910805 0.846764
-22.73641777 -18.58624268 16.64908981 1.246359
-23.69764900 -18.56501961 17.00722122 1.676130
-24.65709305 -18.54228401 17.33601952 2.141879
-25.62380981 -18.52657509 17.64650726 2.630428
-26.59468651 -18.51354218 17.93723106 3.133623
-27.56831741 -18.50394821 18.21148682 3.675774
-28.54591942 -18.49416161 18.47096252 4.307474
-29.52514839 -18.48668480 18.71686935 5.012242
-30.50726509 -18.48120117 18.95086479 5.764935
-31.49093819 -18.47858047 19.17335701 6.572676
-32.47776413 -18.47761917 19.38418579 7.405205
-33.46428680 -18.47746658 19.58371544 8.249267
-34.45364761 -18.47789383 19.77385521 9.103525
-35.44387817 -18.47920609 19.95425797 9.972412
-36.43525696 -18.48139763 20.12556839 10.863478
-37.42893600 -18.48394203 20.28765488 11.760790
-38.42516327 -18.48716736 20.43924713 12.662001
-39.42633057 -18.49090004 20.57839012 13.568484
-40.43412781 -18.49407959 20.69999504 14.481532
-41.45279694 -18.49790764 20.79497719 15.413772
41.45072174 -19.49753380 20.80591965 15.837447
40.43323135 -19.49242020 20.71393585 14.916971
39.42674637 -19.48919487 20.59805679 14.006320
38.42499542 -19.48414230 20.46592522 13.098961
37.42815781 -19.48106384 20.32186699 12.199388
36.43364334 -19.47826576 20.16814041 11.318041
35.44036102 -19.47657394 20.00552177 10.450766
34.44820404 -19.47589493 19.83417702 9.587681
33.45713425 -19.47616768 19.65406990 8.729999
32.46713257 -19.47795677 19.46496391 7.880666
31.47862053 -19.48136520 19.26709557 7.063863
30.48990059 -19.48723984 19.05915833 6.269630
29.50233459 -19.49439240 18.84003448 5.496976
28.51693153 -19.50360680 18.61013985 4.758203
27.53157043 -19.51801109 18.36875153 4.095495
26.54781723 -19.53505898 18.11434746 3.521623
25.56341934 -19.55778313 17.84528923 3.002962
24.58192825 -19.58255005 17.56119156 2.507960
23.59710121 -19.61736679 17.25837135 2.045303
22.61631203 -19.65507507 16.93127060 1.599920
21.64211273 -19.70226669 16.59225845 1.189492
20.65094566 -19.76329041 16.22290611 0.808047
19.68396378 -19.81784821 15.82974815 0.459862
18.67961502 -19.91669655 15.39357185 0.162412
17.69388199 -20.01911926 14.90958691 -0.079888
16.70800018 -20.07251930 14.33919621 -0.289113
15.69188309 -20.19794655 13.71891403 -0.414382
14.73348522 -20.29289246 13.07054138 -0.499328
13.68196678 -20.42781448 12.36409187 -0.534682
12.69502068 -20.52626228 11.68440723 -0.565829
11.59927082 -20.60269356 10.99148178 -0.606649
10.54570103 -20.59214973 10.26016903 -0.638089
9.43320847 -20.54554749 9.63356400 -0.722011
8.34012127 -20.47024155 9.00916767 -0.748865
7.26480961 -20.34353828 8.39523983 -0.766627
6.19047594 -20.28080177 7.98731041 -0.788653
5.14345121 -20.22121429 7.62584782 -0.802793
4.11403275 -20.12609291 7.27632713 -0.806000
3.03754282 -20.08464241 7.04505825 -0.800573
2.04226685 -20.04399872 6.87379646 -0.790570
0.98871702 -19.96469498 6.71586418 -0.788407
-0.00442092 -19.97211456 6.70695686 -0.795684
-1.05931222 -19.92893410 6.67094135 -0.783628
-2.05928349 -19.85345840 6.67718220 -0.785271
-3.08602285 -19.85636520 6.87207031 -0.826766
-4.14863920 -19.85227394 7.02410698 -0.803738
-5.13212061 -19.84123039 7.23802757 -0.809038
-6.21716976 -19.85302925 7.55363178 -0.806547
-7.26392603 -19.95472527 7.93139267 -0.729994
-8.20044804 -19.97718048 8.41804886 -0.783536
-9.33459854 -20.00375748 8.99787235 -0.765875
-10.32638359 -20.01369858 9.48153305 -0.707116
-11.37024117 -20.11743927 10.21220779 -0.635347
-12.34385777 -20.12650108 10.94188404 -0.607886
-13.31692886 -20.08719254 11.66925240 -0.585822
-14.24742699 -20.00058174 12.32063293 -0.536912
-15.20721436 -19.93123627 13.05360985 -0.495479
-16.06116676 -19.88206291 13.70069885 -0.418925
-17.00805855 -19.81297874 14.37441826 -0.307905
-17.93791389 -19.77081680 14.92102909 -0.104728
-18.87932014 -19.71202850 15.41198349 0.146535
-19.84044075 -19.65801430 15.84321499 0.448331
-20.78962708 -19.63504028 16.22625732 0.818524
-21.72824478 -19.61475372 16.59359932 1.193171
-22.69600296 -19.58276367 16.94238281 1.606124
-23.65429115 -19.55864143 17.26150322 2.048754
-24.62428474 -19.53949928 17.56617546 2.509366
-25.59702110 -19.52330780 17.85154152 3.004903
-26.57099342 -19.51099586 18.12050056 3.522092
-27.54995346 -19.49862671 18.37576866 4.095751
-28.52978706 -19.49063683 18.61779785 4.759563
-29.51221275 -19.48379135 18.84856987 5.497664
-30.49698448 -19.47989655 19.06809044 6.270236
-31.48389053 -19.47738075 19.27626991 7.065167
-32.47219467 -19.47641754 19.47369766 7.883670
-33.46116257 -19.47645187 19.66113091 8.733369
-34.45143890 -19.47717667 19.83994102 9.591030
-35.44377136 -19.47860336 20.00977325 10.454738
-36.43618774 -19.48080635 20.17078209 11.321542
-37.43146896 -19.48386955 20.32317543 12.203646
-38.42849350 -19.48689842 20.46555138 13.103296
-39.43001175 -19.49036217 20.59610748 14.009681
-40.43886566 -19.49456787 20.70967674 14.922767
-41.45595932 -19.49726868 20.79773712 15.841620
41.45373917 -20.49652863 20.80866241 16.277070
40.43819427 -20.49346924 20.72380257 15.359630
39.42987442 -20.48815155 20.61571693 14.449018
38.42864609 -20.48464584 20.49235153 13.558392
37.43026733 -20.48049927 20.35745430 12.682227
36.43456650 -20.47774506 20.21302032 11.810486
35.44041824 -20.47573280 20.06027985 10.941822
34.44704437 -20.47469902 19.89948463 10.076406
33.45412827 -20.47455025 19.73008347 9.228122
32.46334457 -20.47583961 19.55244446 8.404550
31.47269058 -20.47888947 19.36660194 7.588843
30.48233414 -20.48300934 19.17135620 6.783734
29.49351692 -20.49026489 18.96675682 6.003078
28.50567627 -20.49962616 18.75264740 5.272637
27.51762581 -20.51164627 18.52720451 4.577662
26.53156662 -20.52626801 18.29067230 3.938926
25.54578781 -20.54404640 18.04218674 3.403801
24.55952072 -20.56885529 17.78048897 2.913002
23.57499123 -20.59667206 17.50368118 2.432968
22.59085846 -20.62855911 17.21161461 1.986657
21.60472298 -20.67254448 16.90190506 1.566850
20.62311172 -20.72171402 16.57430458 1.169389
19.63606262 -20.79125404 16.23096657 0.816050
18.64901352 -20.84088326 15.84547806 0.481635
17.65768433 -20.90948296 15.41961098 0.200826
16.67649078 -21.00616455 15.00028419 -0.042005
15.65022850 -21.08424187 14.48064804 -0.243557
14.67241573 -21.16664124 13.94911003 -0.387886
13.64848518 -21.26762772 13.35107136 -0.482353
12.64004230 -21.39308357 12.74857426 -0.517169
11.62780571 -21.49731827 12.10452652 -0.527346
10.59861374 -21.58764076 11.52125835 -0.542245
9.50641918 -21.58770943 10.86585617 -0.592598
8.43028927 -21.55716133 10.33353710 -0.668344
7.33939791 -21.54971123 9.83809757 -0.710524
6.24447870 -21.48282623 9.31491566 -0.723288
5.20603418 -21.37581062 8.91036224 -0.765836
4.12727880 -21.36055183 8.62315083 -0.785772
3.12071538 -21.26085091 8.28125286 -0.778162
2.03593707 -21.18040276 8.04547501 -0.774038
1.01850486 -21.14737892 7.95854568 -0.793725
-0.03483323 -21.06774521 7.84935474 -0.800539
-1.00235438 -21.04569244 7.86883926 -0.818494
-2.07785177 -21.05387878 7.95173454 -0.803812
-3.07815123 -20.98436356 8.04996204 -0.826871
-4.17792225 -21.00587273 8.29636002 -0.835642
-5.14206076 -21.07745361 8.57850552 -0.811501
-6.22910166 -21.12209892 8.88477516 -0.736224
-7.20784473 -21.11627769 9.18033695 -0.684896
-8.29946995 -21.15139771 9.71082687 -0.676293
-9.25586033 -21.20267105 10.25467682 -0.633643
-10.28011322 -21.22792625 10.90348530 -0.615792
-11.25259876 -21.15767479 11.45255566 -0.578790
-12.23642254 -21.10261345 12.09132671 -0.562349
-13.16341114 -21.02217484 12.69735909 -0.527615
-14.08743763 -20.97323608 13.36612225 -0.497704
-15.03583813 -20.88921738 13.94699860 -0.397485
-15.97624111 -20.82563591 14.48691845 -0.256669
-16.89782333 -20.78360367 14.99441814 -0.063305
-17.86844254 -20.72756195 15.45928001 0.180369
-18.79590416 -20.70113564 15.86544800 0.468407
-19.76929855 -20.66891861 16.25147247 0.809945
-20.72845459 -20.62247849 16.58311272 1.166079
-21.68630409 -20.59073257 16.90135384 1.570750
-22.65084076 -20.56704521 17.21340179 1.987595
-23.62186813 -20.54752159 17.50836182 2.434151
-24.59546089 -20.53018188 17.78672600 2.912010
-25.57204437 -20.51768494 18.04979324 3.402545
-26.55143547 -20.50422668 18.29916382 3.937900
-27.53192139 -20.49588203 18.53679657 4.576642
-28.51617813 -20.48680496 18.76325226 5.270974
-29.50149345 -20.48206711 18.97828102 6.002790
-30.48830223 -20.47801590 19.18301964 6.784603
-31.47787857 -20.47614670 19.37755966 7.590794
-32.46730804 -20.47532272 19.56212044 8.407084
-33.45833588 -20.47520638 19.73806953 9.231791
-34.45047760 -20.47638130 19.90554428 10.080165
-35.44366455 -20.47814178 20.06477165 10.945859
-36.43811417 -20.48063469 20.21572495 11.815043
-37.43379974 -20.48319244 20.35832787 12.686650
-38.43197250 -20.48651314 20.49171066 13.562181
-39.43462372 -20.49077415 20.61345482 14.454340
-40.44271088 -20.49394798 20.71894836 15.363667
-41.45940781 -20.49731636 20.80088234 16.282119
41.45675278 -21.49687004 20.81165123 16.719540
40.44256592 -21.49258041 20.73331261 15.816987
39.43369293 -21.48842621 20.63346291 14.930797
38.43182755 -21.48410797 20.51840210 14.052156
37.43298340 -21.48053360 20.39271927 13.176680
36.43601227 -21.47716522 20.25781822 12.303494
35.44066620 -21.47494698 20.11483192 11.439917
34.44617081 -21.47364998 19.96407890 10.599556
33.45273972 -21.47322655 19.80559158 9.766951
32.45980072 -21.47355652 19.63936615 8.938637
31.46743965 -21.47582626 19.46487808 8.117015
30.47648621 -21.48016548 19.28255653 7.326700
29.48533249 -21.48569489 19.09118462 6.559701
28.49630547 -21.49370766 18.89153862 5.811271
27.50590134 -21.50338554 18.68213463 5.087521
26.51828384 -21.51628113 18.46366692 4.434596
25.52819443 -21.53299904 18.23389816 3.840287
24.54196358 -21.55297661 17.99256516 3.323842
23.55468369 -21.57799721 17.74019241 2.854636
22.56761742 -21.60833168 17.47619247 2.402127
21.57887840 -21.64040184 17.19557381 1.963197
20.59162140 -21.68414307 16.89990044 1.569626
19.60037041 -21.73697281 16.58023834 1.194956
18.62840462 -21.80182648 16.26501465 0.862629
17.62479973 -21.85383606 15.92043400 0.533602
16.61969566 -21.92439842 15.53074074 0.262578
15.64771461 -21.98842812 15.14527321 0.021489
14.61402225 -22.06894684 14.69971275 -0.178747
13.62064934 -22.16255760 14.23252869 -0.323676
12.60912800 -22.22675323 13.71023369 -0.428279
11.58374882 -22.34077072 13.17506409 -0.477657
10.59304428 -22.45366859 12.64241982 -0.479327
9.55106258 -22.52192497 12.16872311 -0.535860
8.47276688 -22.55644035 11.64308739 -0.576429
7.41098022 -22.58047485 11.16099072 -0.592089
6.35172701 -22.58539009 10.73291588 -0.626882
5.26495409 -22.55045509 10.32766438 -0.657861
4.21482277 -22.46763420 9.93660927 -0.684020
3.18457031 -22.46960258 9.73836517 -0.715421
2.10618210 -22.41963387 9.53159618 -0.740013
1.05305123 -22.35207748 9.35619545 -0.741663
0.02799912 -22.33867264 9.29338264 -0.735934
-0.97981209 -22.26630592 9.28675079 -0.776419
-2.09479356 -22.23307037 9.38328743 -0.795970
-3.03905606 -22.29242897 9.55333614 -0.766700
-4.10383654 -22.25001907 9.70408535 -0.751896
-5.17370033 -22.26370430 9.91716862 -0.676851
-6.12848043 -22.27800941 10.23483467 -0.647923
-7.18864489 -22.33018875 10.70376205 -0.615339
-8.16788197 -22.30391693 11.13033295 -0.587088
-9.20332336 -22.22791672 11.58659649 -0.579312
-10.14644337 -22.18570709 12.07058144 -0.541262
-11.11013603 -22.12893295 12.65180397 -0.545702
-12.06486607 -22.02202034 13.16747856 -0.518666
-13.02159309 -21.98551559 13.72826004 -0.445246
-13.98110580 -21.91787338 14.21522045 -0.322080
-14.89651966 -21.86071968 14.69222069 -0.193889
-15.87209797 -21.79555321 15.15729713 -0.001280
-16.82218361 -21.75037956 15.56115913 0.231672
-17.78598785 -21.72491455 15.94083405 0.530266
-18.74681091 -21.67711639 16.27652740 0.842976
-19.70379066 -21.63262749 16.59844589 1.183263
-20.67523384 -21.60441589 16.91179848 1.564634
-21.64302444 -21.57693863 17.20402718 1.957661
-22.61770248 -21.55548668 17.48324585 2.399037
-23.59181023 -21.53682709 17.74876595 2.849351
-24.57133865 -21.52380753 18.00243187 3.321882
-25.54964638 -21.50965309 18.24342537 3.837277
-26.53460884 -21.50011253 18.47467041 4.432852
-27.51698303 -21.49034691 18.69405174 5.085257
-28.50437355 -21.48502731 18.90497589 5.810052
-29.49181366 -21.47940826 19.10491943 6.559292
-30.48146820 -21.47637939 19.29573059 7.327183
-31.47204399 -21.47433662 19.47700691 8.119256
-32.46374130 -21.47348595 19.64958763 8.941499
-33.45606232 -21.47449684 19.81397057 9.770266
-34.44989014 -21.47552490 19.97045898 10.603677
-35.44423294 -21.47766113 20.11907959 11.444419
-36.43974686 -21.47989464 20.26015663 12.308136
-37.43659592 -21.48293877 20.39330292 13.181023
-38.43594742 -21.48664665 20.51747131 14.056954
-39.43856430 -21.48995209 20.63045120 14.935657
-40.44697952 -21.49409485 20.72835159 15.821353
-41.46278763 -21.49726868 20.80373573 16.724715
41.46063995 -22.49617195 20.81495476 17.197238
40.44601059 -22.49251556 20.74308205 16.309298
39.43855286 -22.48827171 20.65097427 15.426505
38.43496323 -22.48391151 20.54452133 14.546675
37.43559647 -22.48013306 20.42755127 13.673798
36.43809509 -22.47701836 20.30217743 12.820584
35.44143295 -22.47438049 20.16889954 11.979818
34.44615936 -22.47242165 20.02816582 11.141803
33.45124817 -22.47146606 19.88022804 10.306452
32.45705414 -22.47217560 19.72493172 9.481442
31.46364594 -22.47334671 19.56210327 8.686263
30.47103691 -22.47671318 19.39161873 7.901173
29.47936440 -22.48113823 19.21392059 7.125089
28.48686981 -22.48769569 19.02795792 6.369010
27.49735069 -22.49678993 18.83483124 5.661025
26.50518417 -22.50754738 18.63244438 4.976132
25.51534843 -22.52243996 18.42043495 4.332339
24.52529907 -22.53942871 18.19839478 3.777943
23.53723717 -22.56043816 17.96773911 3.294834
22.54670715 -22.58528709 17.72602654 2.828060
21.55847359 -22.61844254 17.47549820 2.404740
20.56438255 -22.65276527 17.20709610 1.989750
19.57721329 -22.69239426 16.92318344 1.610428
18.58921432 -22.73731232 16.63139725 1.257326
17.59847832 -22.80483818 16.33772659 0.931935
16.60612869 -22.85767746 16.02328873 0.632999
15.60672665 -22.91596794 15.69522858 0.358061
14.58985806 -22.98912048 15.33263493 0.129117
13.60560417 -23.04682159 14.94494057 -0.058713
12.59170246 -23.11365700 14.56532764 -0.234278
11.55516148 -23.18137550 14.11593246 -0.347120
10.55926609 -23.24298668 13.67831612 -0.438978
9.51819801 -23.34305954 13.24005699 -0.470008
8.51138210 -23.44046211 12.83952522 -0.494535
7.45279646 -23.49011803 12.42077732 -0.517403
6.41248417 -23.52256584 12.05930424 -0.548843
5.35956240 -23.54820824 11.71664524 -0.569663
4.30235529 -23.56712341 11.44100380 -0.579113
3.22156549 -23.53409195 11.16415024 -0.607185
2.21993828 -23.52358627 10.99662876 -0.627243
1.13827205 -23.47577477 10.85268593 -0.650763
0.09589141 -23.47378349 10.77252007 -0.637421
-0.92128605 -23.46645927 10.80289268 -0.645179
-1.97157311 -23.40489960 10.82958889 -0.651557
-3.04335165 -23.38849068 10.92447948 -0.623914
-3.97615910 -23.39267159 11.15909576 -0.624964
-5.05533791 -23.38224030 11.40046978 -0.586233
-6.05302620 -23.35960960 11.67294502 -0.563517
-7.07344484 -23.26469612 11.97931480 -0.560068
-8.04603195 -23.24571991 12.37622643 -0.535649
-9.00367546 -23.16893959 12.81239796 -0.546271
-10.04520893 -23.09754944 13.24915314 -0.497071
-10.96337700 -23.03460312 13.63481331 -0.431340
-11.94071484 -23.00589561 14.13910580 -0.348032
-12.91136169 -22.91740990 14.53264618 -0.231478
-13.84294987 -22.86862564 14.94453239 -0.087099
-14.82844543 -22.81279373 15.34862041 0.105038
-15.77400017 -22.76746941 15.70944977 0.325239
-16.76058578 -22.72584724 16.05237198 0.607112
-17.72232437 -22.67856407 16.35076141 0.900954
-18.68572426 -22.64907837 16.65381241 1.243175
-19.65630150 -22.61907959 16.94687271 1.595366
-20.63287926 -22.58879280 17.22355270 1.982832
-21.60728264 -22.56648636 17.48711205 2.395945
-22.58689308 -22.54588318 17.73963356 2.820802
-23.56805420 -22.53076935 17.97998810 3.290234
-24.54801941 -22.51567841 18.21002388 3.772644
-25.53413200 -22.50423050 18.43235397 4.330306
-26.51752472 -22.49427986 18.64429474 4.973837
-27.50641060 -22.48721313 18.84824181 5.659091
-28.49317360 -22.48077011 19.04237175 6.367320
-29.48434830 -22.47675514 19.22893333 7.124857
-30.47514915 -22.47400665 19.40607834 7.901775
-31.46803284 -22.47265244 19.57497215 8.688743
-32.46053314 -22.47271729 19.73561668 9.484299
-33.45501328 -22.47321701 19.88873482 10.310469
-34.44948578 -22.47497940 20.03431511 11.146002
-35.44528961 -22.47687340 20.17272949 11.984465
-36.44165039 -22.47970009 20.30405045 12.825068
-37.43989944 -22.48262978 20.42774773 13.678776
-38.43931961 -22.48608971 20.54281616 14.551473
-39.44276428 -22.48999214 20.64761734 15.430875
-40.45133972 -22.49399757 20.73751450 16.314410
-41.46580124 -22.49697495 20.80654335 17.201726
41.46460724 -23.49616432 20.81850624 17.691567
40.45002365 -23.49235344 20.75308990 16.803916
39.44210052 -23.48817825 20.66818619 15.922068
38.43929291 -23.48405266 20.57016945 15.057095
37.43867493 -23.47994804 20.46219444 14.209333
36.44013596 -23.47654915 20.34590149 13.365907
35.44284058 -23.47371292 20.22230721 12.524369
34.44620514 -23.47159386 20.09152412 11.685109
33.45076370 -23.47047234 19.95387459 10.866811
32.45497513 -23.46967316 19.80914879 10.065980
31.46069145 -23.47135544 19.65753937 9.270648
30.46675110 -23.47311401 19.49921417 8.479593
29.47330284 -23.47708702 19.33411026 7.714132
28.48098373 -23.48276901 19.16227531 6.977153
27.48765945 -23.49032021 18.98288155 6.251738
26.49587631 -23.50061798 18.79625320 5.548430
25.50370598 -23.51157570 18.60108376 4.903251
24.51214790 -23.52667618 18.39768219 4.297684
23.52098846 -23.54568481 18.18614578 3.749188
22.53107071 -23.56723213 17.96713257 3.296571
21.53785515 -23.59147072 17.73740005 2.855400
20.54593849 -23.62358093 17.49729919 2.439996
19.55550957 -23.65638161 17.24802589 2.055182
18.56303024 -23.69744682 16.98863792 1.685083
17.57044220 -23.73918724 16.71857262 1.352543
16.57784843 -23.79273605 16.44577217 1.035595
15.58420181 -23.85176659 16.17202759 0.757562
14.57713318 -23.90042305 15.87006187 0.489100
13.57921600 -23.96848869 15.56811142 0.277943
12.57157135 -24.02443314 15.25434589 0.070806
11.55455017 -24.08674431 14.92943287 -0.088845
10.53476143 -24.15139771 14.59758568 -0.227183
9.51023388 -24.18610382 14.22755241 -0.334519
8.48597813 -24.25967026 13.85326099 -0.381311
7.49872112 -24.31383514 13.54195404 -0.437215
6.42454386 -24.35553360 13.22404289 -0.480876
5.40175676 -24.41407585 12.96429062 -0.505131
4.35913992 -24.43560028 12.71408272 -0.522540
3.33354735 -24.43831253 12.48117065 -0.534044
2.27769279 -24.43701744 12.32782555 -0.559296
1.23712516 -24.46957397 12.25404358 -0.548981
0.18933322 -24.46273232 12.16555309 -0.539590
-0.80857360 -24.42357063 12.15553188 -0.553178
-1.87536919 -24.41588974 12.25786114 -0.561644
-2.87387395 -24.37057877 12.34753799 -0.574653
-3.92977214 -24.30345726 12.47364426 -0.564144
-4.91774225 -24.30599403 12.68784618 -0.529999
-5.92306948 -24.27080536 12.92883873 -0.501286
-6.87536526 -24.19877815 13.24698067 -0.520854
-7.95952082 -24.11546135 13.53727150 -0.477989
-8.86705780 -24.09786987 13.84906197 -0.398367
-9.88116932 -23.99624443 14.20673370 -0.359256
-10.89439583 -23.99254227 14.57296085 -0.212887
-11.82504463 -23.91905403 14.87315369 -0.091609
-12.79769039 -23.87148857 15.24508858 0.054041
-13.77573395 -23.81678009 15.57954025 0.239609
-14.73639774 -23.76918793 15.89483547 0.457050
-15.71484947 -23.73162079 16.19656754 0.719234
-16.69343758 -23.68779564 16.47594643 1.007492
-17.66197968 -23.65485382 16.74935341 1.326005
-18.64332581 -23.61924553 17.01252174 1.662683
-19.61632538 -23.59584045 17.26823425 2.039782
-20.59915924 -23.57207489 17.51710892 2.426099
-21.57902908 -23.55368233 17.75316429 2.848291
-22.56148720 -23.53634453 17.98125839 3.287941
-23.54630089 -23.52098274 18.19983673 3.742964
-24.53171158 -23.50820351 18.41024208 4.294487
-25.51629639 -23.49778366 18.61379242 4.899366
-26.50648499 -23.48890305 18.80994606 5.545608
-27.49518394 -23.48257637 18.99706459 6.250258
-28.48537636 -23.47764778 19.17718124 6.975474
-29.47729111 -23.47407913 19.34966850 7.713939
-30.47060394 -23.47210884 19.51408005 8.481232
-31.46412277 -23.47148514 19.67066956 9.273011
-32.45896912 -23.47129631 19.81990433 10.069960
-33.45382690 -23.47258949 19.96196938 10.870501
-34.45021820 -23.47429657 20.09716606 11.689993
-35.44658279 -23.47650909 20.22546768 12.529086
-36.44411087 -23.47919464 20.34715462 13.370712
-37.44282150 -23.48223877 20.46173096 14.214042
-38.44352341 -23.48600197 20.56802559 15.061632
-39.44712448 -23.48997688 20.66422272 15.927146
-40.45526505 -23.49360466 20.74662781 16.808803
-41.46914291 -23.49679375 20.80955315 17.695411
41.46845245 -24.49656868 20.82169533 18.186093
40.45432281 -24.49245071 20.76284027 17.307771
39.44639969 -24.48816109 20.68533516 16.449523
38.44295883 -24.48398781 20.59526062 15.601680
37.44234467 -24.48009682 20.49608994 14.756267
36.44285583 -24.47642899 20.38907623 13.912040
35.44453812 -24.47327232 20.27488136 13.075578
34.44738770 -24.47083092 20.15399361 12.263277
33.44976425 -24.46888161 20.02615166 11.457647
32.45440674 -24.46860695 19.89208794 10.656289
31.45817757 -24.46844864 19.75130463 9.857639
30.46369553 -24.47088242 19.60458374 9.091000
29.46914291 -24.47361946 19.45188141 8.338171
28.47458267 -24.47798347 19.29272842 7.591927
27.48108482 -24.48405647 19.12714577 6.862340
26.48739433 -24.49259567 18.95473099 6.177219
25.49470520 -24.50303650 18.77620125 5.510101
24.50063515 -24.51554489 18.58999252 4.868346
23.50900078 -24.52985382 18.39638138 4.298890
22.51669693 -24.54838181 18.19714165 3.779619
21.52298737 -24.57045746 17.99022293 3.327268
20.52857780 -24.59509659 17.77302551 2.918002
19.53806496 -24.62546539 17.55061340 2.517347
18.54172134 -24.65832901 17.31940842 2.151284
17.55229568 -24.69340324 17.08432198 1.802062
16.55087090 -24.73648071 16.84068108 1.479349
15.56178951 -24.78055000 16.59191513 1.186771
14.55994797 -24.83781433 16.34648705 0.917327
13.55580425 -24.87948608 16.08357430 0.668397
12.56255150 -24.92913818 15.83251572 0.449708
11.53263378 -24.98171616 15.56214333 0.250285
10.53533745 -25.02910042 15.28864098 0.094718
9.52065563 -25.09082985 15.03605080 -0.049828
8.50482082 -25.12795448 14.76264477 -0.160784
7.47111654 -25.18022728 14.49878597 -0.248916
6.46925879 -25.23178101 14.27147293 -0.308208
5.41334534 -25.24828720 14.01565552 -0.367240
4.42256212 -25.28460884 13.81668758 -0.390663
3.38794589 -25.31623077 13.67917633 -0.425626
2.32171273 -25.33075523 13.53680992 -0.440911
1.31491351 -25.32880592 13.41281891 -0.433274
0.30240387 -25.31282806 13.36143875 -0.454471
-0.76064509 -25.29984283 13.39673042 -0.469644
-1.75182009 -25.27744865 13.44853020 -0.473944
-2.78668094 -25.26694870 13.53942966 -0.455404
-3.77613568 -25.24741364 13.68402100 -0.434083
-4.81115341 -25.16308784 13.82196426 -0.438693
-5.81496906 -25.14431190 14.00866699 -0.371126
-6.79011250 -25.11249924 14.22724915 -0.315042
-7.79583549 -25.06074524 14.49393845 -0.260764
-8.79722309 -24.99809647 14.73548508 -0.172184
-9.78281879 -24.99094772 15.04170227 -0.051963
-10.76954651 -24.89614868 15.27823830 0.067951
-11.73678017 -24.85177231 15.56453991 0.221436
-12.73107147 -24.81038857 15.84547424 0.411012
-13.69860649 -24.76991081 16.10904884 0.631730
-14.67770004 -24.73315620 16.37540054 0.871764
-15.65760612 -24.68862534 16.62765312 1.146563
-16.63897324 -24.65826225 16.87386894 1.446693
-17.62023544 -24.62825012 17.11273003 1.777702
-18.60248566 -24.60345650 17.34800148 2.130020
-19.58438492 -24.57853699 17.57427216 2.500548
-20.57133293 -24.55971527 17.79476547 2.907356
-21.55503464 -24.53997040 18.00562668 3.316903
-22.54047394 -24.52592468 18.21175003 3.772624
-23.52822304 -24.51105309 18.41109085 4.292947
-24.51576614 -24.50041771 18.60355949 4.864437
-25.50499725 -24.49163437 18.78970718 5.506803
-26.49537849 -24.48499489 18.96946144 6.175338
-27.48659134 -24.47879219 19.14193916 6.860990
-28.47853470 -24.47451401 19.30802727 7.591329
-29.47242546 -24.47182465 19.46708870 8.338554
-30.46636581 -24.47055054 19.61897278 9.092222
-31.46154785 -24.46967506 19.76408958 9.860749
-32.45780182 -24.47050285 19.90232277 10.660048
-33.45391846 -24.47184181 20.03352356 11.462768
-34.45081329 -24.47358131 20.15854263 12.267724
-35.44839096 -24.47603416 20.27722359 13.080365
-36.44673538 -24.47865105 20.38960075 13.916517
-37.44640732 -24.48231316 20.49503899 14.760844
-38.44756317 -24.48578072 20.59261131 15.606416
-39.45143127 -24.48975182 20.68052864 16.454409
-40.45901489 -24.49342346 20.75571442 17.311969
-41.47280884 -24.49695587 20.81256294 18.189658
41.47194290 -25.49634933 20.82458305 18.702876
40.45885086 -25.49273109 20.77206421 17.847600
39.45076752 -25.48831367 20.70199203 16.996444
38.44733810 -25.48419380 20.61996078 16.148963
37.44589996 -25.48009682 20.52923775 15.303851
36.44589615 -25.47657394 20.43111038 14.475543
35.44707489 -25.47342300 20.32639122 13.665605
34.44837189 -25.47017860 20.21508408 12.857178
33.45066071 -25.46826935 20.09726143 12.051031
32.45349884 -25.46681404 19.97312546 11.252801
31.45720291 -25.46689224 19.84323883 10.484437
30.46066856 -25.46774483 19.70719528 9.722685
29.46598625 -25.47062111 19.56607819 8.966510
28.47093391 -25.47402954 19.41984749 8.225840
27.47517014 -25.47891617 19.26743889 7.519201
26.48097801 -25.48518181 19.10898590 6.822249
25.48652840 -25.49405289 18.94509315 6.140017
24.49247742 -25.50435638 18.77540588 5.510073
23.49774551 -25.51708221 18.59952164 4.903946
22.50600243 -25.53213882 18.41873932 4.334906
21.50952721 -25.55071449 18.23080826 3.843726
20.51666832 -25.57160378 18.03644943 3.408732
19.52033997 -25.59619713 17.83506775 3.011583
18.52865219 -25.62468529 17.63038063 2.640638
17.53182602 -25.65611076 17.42143440 2.279917
16.53701401 -25.68814659 17.20682716 1.957246
15.53698540 -25.72776604 16.98785210 1.644666
14.54414558 -25.76274300 16.76554108 1.371833
13.54297066 -25.81091881 16.55156326 1.105970
12.53539658 -25.85988045 16.33258629 0.884081
11.53993034 -25.90279388 16.11925888 0.665437
10.51864338 -25.94373322 15.90063477 0.481834
9.52135563 -25.97536278 15.68029404 0.313811
8.49560928 -26.02708626 15.47649288 0.181392
7.49582529 -26.06772804 15.27552700 0.071005
6.46409988 -26.09436226 15.06792164 -0.024166
5.47522736 -26.12444878 14.90965939 -0.102326
4.41025400 -26.15212440 14.74290848 -0.161609
3.42339253 -26.18680191 14.60809803 -0.182462
2.40468287 -26.17636871 14.50407028 -0.231683
1.37004232 -26.17987251 14.44025993 -0.255754
0.33886588 -26.22200775 14.43168068 -0.248805
-0.66383410 -26.21602058 14.43121338 -0.243324
-1.67491937 -26.15193939 14.44258690 -0.267733
-2.71003413 -26.13409805 14.50748062 -0.241476
-3.70396233 -26.11915970 14.59926510 -0.197504
-4.71424007 -26.11453056 14.76229858 -0.158228
-5.71676826 -26.05306816 14.88848305 -0.103901
-6.71240854 -26.00235367 15.05638599 -0.044373
-7.69810820 -25.95643044 15.25870514 0.038150
-8.73000431 -25.92494202 15.48186302 0.157697
-9.70276928 -25.88215828 15.66461468 0.302201
-10.68507576 -25.85974693 15.91087723 0.461154
-11.67690849 -25.81830406 16.13714981 0.640098
-12.65308666 -25.76064301 16.35663605 0.836186
-13.64341354 -25.71860313 16.58143616 1.063424
-14.62959003 -25.68392563 16.80225372 1.328555
-15.61356068 -25.66184998 17.02420044 1.612529
-16.59881020 -25.62956619 17.23877907 1.927104
-17.58418083 -25.60457611 17.44981194 2.251701
-18.57161903 -25.58193970 17.65697670 2.619466
-19.55862045 -25.56176376 17.85892296 2.994974
-20.54661751 -25.54344368 18.05543327 3.396754
-21.53495789 -25.52893257 18.24689674 3.835946
-22.52372360 -25.51371384 18.43270683 4.327504
-23.51244545 -25.50387192 18.61420631 4.900211
-24.50406075 -25.49381828 18.78979874 5.507152
-25.49479294 -25.48617363 18.95920753 6.137877
-26.48675728 -25.47962189 19.12321472 6.820799
-27.47947121 -25.47502899 19.28206825 7.518255
-28.47380829 -25.47199821 19.43466187 8.225534
-29.46834373 -25.46984863 19.58078194 8.967125
-30.46327972 -25.46828461 19.72100258 9.724629
-31.46016884 -25.46839333 19.85521317 10.487504
-32.45719147 -25.46948051 19.98232651 11.257334
-33.45417786 -25.47103310 20.10333252 12.055552
-34.45209503 -25.47296524 20.21865463 12.861887
-35.45047760 -25.47550774 20.32796288 13.669619
-36.44974136 -25.47870827 20.43115616 14.479911
-37.45009232 -25.48192215 20.52760315 15.308295
-38.45166779 -25.48578644 20.61658669 16.153331
-39.45561981 -25.48957253 20.69655991 17.000976
-40.46326065 -25.49356079 20.76445389 17.851422
-41.47581482 -25.49694061 20.81522369 18.706052
