//X Y Z C2M_signed_distances
-19.00461960 13.53937435 10.39550304 -0.543898
-20.05299759 13.47295380 11.53089428 -0.458050
-21.02927589 13.23457623 12.56038570 -0.422927
-21.97876358 13.04793644 13.47095108 -0.297621
-22.91845131 12.97873497 14.32429504 -0.092708
-23.85425186 12.82768059 15.00604343 0.175733
-24.82308960 12.75240803 15.60856247 0.557956
-25.74636650 12.68711567 16.10887718 0.969677
-26.70698357 12.63242722 16.58224487 1.431685
-27.66880226 12.59249687 16.99873352 1.930192
-28.63268471 12.55973339 17.37607956 2.469271
-29.59859085 12.53618526 17.72788239 3.032460
-30.56782341 12.51927662 18.05737305 3.612223
-31.53783035 12.50509548 18.36702728 4.261612
-32.51227570 12.49524689 18.66025543 5.015099
-33.48846054 12.48875809 18.93674469 5.841766
-34.46697617 12.48432350 19.19845581 6.715739
-35.44758224 12.48307228 19.44638824 7.614445
-36.43081284 12.48296452 19.68099594 8.529672
-37.41719437 12.48489094 19.90230751 9.457264
-38.40652466 12.48744678 20.10953522 10.393384
-39.40169144 12.49216747 20.30099869 11.339913
-40.40488815 12.49559498 20.47175789 12.302251
-41.42176437 12.49933434 20.61248207 13.284663
0.88893259 11.57690239 1.42447281 -0.468269
-0.11289132 11.63941479 1.42824936 -0.461804
-1.10954344 11.61471844 1.45173836 -0.476325
-2.15086651 11.66350174 1.51444817 -0.479123
-3.13027573 11.73963356 1.60673523 -0.479669
-4.12175179 11.74715233 1.75806046 -0.531423
-5.15669584 11.81154823 1.95491028 -0.556088
-6.16740179 11.85840702 2.15080261 -0.565505
-7.16868305 11.88636017 2.39834213 -0.598563
-8.20292950 11.91388988 2.69040108 -0.614514
-9.22240353 12.00691128 3.02331352 -0.619672
-10.22900867 12.08733082 3.38920784 -0.603185
-11.23166752 12.11732388 3.81198311 -0.624297
-12.28754616 12.10910702 4.27062225 -0.610551
-13.26927185 12.24558353 4.87835217 -0.636717
-14.33599949 12.30883121 5.61574745 -0.701287
-15.45274734 12.38707733 6.43598080 -0.718525
-16.56295395 12.51998711 7.47142887 -0.778711
-17.81355476 12.56717491 8.57189465 -0.717841
-18.95804405 12.56762886 9.67823410 -0.634876
-20.08445549 12.40978813 10.83273506 -0.552231
-21.13461685 12.29367065 11.92850590 -0.421313
-22.04327011 12.15972900 12.96754074 -0.363135
-22.98240089 11.95411777 13.87781906 -0.220641
-23.93229866 11.86592007 14.66546059 0.044605
-24.84454536 11.78370380 15.31960964 0.363818
-25.79742622 11.71459389 15.90133476 0.759576
-26.73920059 11.64605713 16.38793755 1.212162
-27.69937515 11.59701538 16.82901001 1.714802
-28.65580177 11.56776333 17.22838593 2.243524
-29.61688042 11.54268837 17.59990692 2.791995
-30.58343887 11.52263069 17.94660950 3.363495
-31.55127144 11.50892830 18.27042961 3.987922
-32.52221680 11.49753761 18.57551765 4.727193
-33.49621582 11.49019718 18.86364365 5.543507
-34.47238922 11.48593044 19.13616943 6.405684
-35.45133591 11.48350430 19.39407158 7.296980
-36.43217468 11.48385620 19.63797569 8.207983
-37.41695786 11.48499584 19.86837578 9.142039
-38.40481949 11.48843575 20.08424568 10.093290
-39.39871216 11.49161243 20.28409767 11.054830
-40.40147400 11.49657154 20.46250725 12.027339
-41.41866302 11.49943829 20.60952187 13.013324
-0.17439154 10.55777931 1.09155464 -0.429434
-1.14265096 10.62852478 1.11666489 -0.424245
-2.15523076 10.67082691 1.19433022 -0.452837
-3.16792417 10.69624043 1.28824806 -0.473641
-4.18414259 10.72781754 1.39295959 -0.466536
-5.14869690 10.74197674 1.55870628 -0.505098
-6.21150637 10.80858231 1.78500938 -0.550330
-7.19340992 10.85956669 2.00665855 -0.553789
-8.23668957 10.91030407 2.29032898 -0.584329
-9.20465469 10.96093273 2.62042427 -0.615510
-10.29718494 11.00471020 3.00322151 -0.637801
-11.29030132 11.05081558 3.35430527 -0.591022
-12.27820873 11.20661259 3.87121582 -0.615380
-13.32098961 11.19602203 4.40025711 -0.641612
-14.38968372 11.23389530 5.00962925 -0.621475
-15.40975666 11.36971855 5.77606869 -0.660298
-16.50370789 11.41020775 6.74425507 -0.756210
-17.77587318 11.45133305 7.84158611 -0.743434
-18.91267014 11.50418854 8.93189716 -0.671890
-20.12675095 11.50280762 10.22310734 -0.577010
-21.17933083 11.40086937 11.32973671 -0.442507
-22.12204552 11.18529129 12.44462109 -0.406063
-23.03406143 11.05270100 13.47373962 -0.312040
-23.97252846 10.92216206 14.34362602 -0.100558
-24.90596390 10.80486107 15.05443096 0.210293
-25.83258057 10.71052265 15.66586113 0.579564
-26.78443718 10.65462780 16.20016670 1.024624
-27.72816467 10.61045456 16.66042328 1.506337
-28.67758942 10.57528210 17.08622360 2.028886
-29.63828468 10.54942703 17.47972488 2.583456
-30.59985733 10.52720165 17.83988190 3.157548
-31.56453514 10.51065159 18.17708588 3.752730
-32.53340149 10.50001621 18.49428940 4.454816
-33.50410843 10.49218559 18.79317284 5.249376
-34.47844696 10.48701572 19.07605553 6.112103
-35.45519638 10.48471737 19.34331322 7.012936
-36.43411636 10.48435593 19.59632683 7.935264
-37.41691208 10.48604965 19.83548164 8.873669
-38.40349197 10.48826599 20.05962753 9.823264
-39.39580536 10.49190235 20.26706314 10.783233
-40.39704895 10.49619484 20.45368385 11.754307
-41.41651154 10.50008297 20.60723495 12.743488
-0.18787888 9.61740017 0.88813782 -0.450610
-1.18806863 9.62484455 0.90693474 -0.452053
-2.19788480 9.63574791 0.95105553 -0.451477
-3.19581437 9.67234898 1.02456093 -0.451768
-4.21690464 9.72446823 1.11974335 -0.447622
-5.20784378 9.74928570 1.24183655 -0.460986
-6.21294689 9.76630211 1.42979050 -0.483360
-7.23598862 9.81728172 1.65806389 -0.515150
-8.23688221 9.87912846 1.93483734 -0.547013
-9.26024437 9.90193558 2.25754547 -0.596359
-10.30176544 9.97698879 2.61526299 -0.600009
-11.30926800 10.08418941 3.01460266 -0.606039
-12.32679176 10.04705334 3.44074249 -0.615943
-13.39013004 10.14968395 3.98186684 -0.612359
-14.36240005 10.31431580 4.56186676 -0.607650
-15.43914223 10.32658768 5.29295254 -0.658683
-16.51931953 10.33993149 6.13018513 -0.705498
-17.65310478 10.52350140 7.21057701 -0.747156
-18.87921715 10.51782608 8.33686352 -0.724661
-20.09756088 10.45294666 9.51125336 -0.614972
-21.19837570 10.41461182 10.78103542 -0.517712
-22.18379402 10.25342560 11.97257042 -0.459697
-23.11774063 10.04765701 13.03569508 -0.364925
-24.01565361 9.90676212 13.97115326 -0.208325
-24.96740723 9.82515049 14.80086899 0.071917
-25.88183594 9.73464584 15.43840027 0.429887
-26.81408501 9.67091274 16.01196671 0.853623
-27.76162529 9.62386990 16.51043129 1.336029
-28.70137596 9.58343220 16.95323563 1.843810
-29.65887451 9.55214691 17.36495781 2.384816
-30.61605072 9.53177166 17.73972321 2.949444
-31.57963371 9.51517487 18.08962822 3.546776
-32.54425812 9.50173187 18.41652298 4.222307
-33.51258469 9.49360561 18.72608185 5.009405
-34.48457718 9.48854446 19.01860237 5.862379
-35.45889664 9.48607922 19.29499626 6.754415
-36.43637466 9.48566818 19.55670547 7.671805
-37.41744995 9.48627567 19.80382156 8.606428
-38.40225601 9.48878288 20.03554535 9.557264
-39.39337921 9.49238396 20.25064278 10.525454
-40.39322281 9.49551201 20.44433975 11.508737
-41.41338348 9.49922276 20.60461235 12.512990
-0.23499925 8.55650234 0.77525902 -0.517416
-1.22498560 8.61381817 0.78698921 -0.505238
-2.24080610 8.65866470 0.81143951 -0.488647
-3.23781061 8.67551041 0.84886169 -0.472677
-4.24465322 8.69922638 0.92128754 -0.469893
-5.25742865 8.74273396 1.01529503 -0.439361
-6.24124146 8.77640247 1.15918159 -0.447209
-7.26599741 8.81585979 1.37003326 -0.471757
-8.26082897 8.83520412 1.61290169 -0.502824
-9.29835033 8.90175247 1.93000412 -0.540104
-10.27404022 8.96452618 2.29710197 -0.603731
-11.34848976 8.99475002 2.70944214 -0.624193
-12.39134884 9.10527992 3.11890411 -0.591774
-13.37384510 9.16710472 3.59507561 -0.598703
-14.40900898 9.15697956 4.19410896 -0.645680
-15.51824951 9.23125076 4.85061169 -0.613177
-16.48365593 9.38261700 5.59021950 -0.635635
-17.65996933 9.34952736 6.62666798 -0.730455
-18.80386162 9.46605492 7.73839855 -0.737638
-20.04502487 9.55551052 8.98729420 -0.659111
-21.18424988 9.40699577 10.23967266 -0.587168
-22.24896622 9.25948524 11.49939632 -0.490180
-23.20746613 9.11147308 12.61120129 -0.380032
-24.09369659 8.96394253 13.62523079 -0.255752
-25.01332283 8.81749630 14.51281929 -0.031852
-25.92905045 8.75373840 15.22932053 0.304443
-26.85480881 8.67433929 15.83591080 0.703473
-27.78372002 8.62543869 16.36274338 1.158045
-28.73292351 8.58746338 16.83352661 1.675409
-29.67637062 8.55614758 17.25422478 2.216124
-30.63339806 8.53440857 17.64717102 2.784819
-31.59334564 8.51622391 18.00722313 3.374137
-32.55526733 8.50513935 18.34433365 4.014449
-33.52163315 8.49551392 18.66299438 4.776358
-34.49008560 8.48992825 18.96425629 5.615987
-35.46306992 8.48754692 19.24991608 6.511607
-36.43888474 8.48668957 19.51932335 7.437710
-37.41767502 8.48740959 19.77375603 8.382356
-38.40159225 8.48995686 20.01307487 9.341848
-39.39151001 8.49184704 20.23461914 10.312774
-40.39045334 8.49573040 20.43473053 11.295982
-41.40983200 8.49850559 20.60102654 12.299564
0.73535776 7.53226662 0.72733498 -0.594983
-0.26666388 7.58768129 0.71933556 -0.584639
-1.26442862 7.59661245 0.72818947 -0.582499
-2.28318572 7.62109566 0.74220085 -0.570687
-3.28145647 7.66223621 0.75460243 -0.534698
-4.27620888 7.70064354 0.79842186 -0.498602
-5.29276848 7.73651505 0.86587524 -0.470026
-6.28054285 7.76852083 0.97422028 -0.449692
-7.29702950 7.79664993 1.14266205 -0.451941
-8.30659199 7.84405756 1.35593033 -0.458305
-9.29878807 7.87477970 1.63700676 -0.499152
-10.31906319 7.89825535 2.00313759 -0.562197
-11.35555553 7.96931410 2.42110062 -0.621650
-12.40565681 8.02764320 2.83691025 -0.616487
-13.40669632 8.10085392 3.31120682 -0.617238
-14.51294136 8.16313362 3.85919952 -0.593158
-15.43101978 8.30006313 4.46269798 -0.623830
-16.60035896 8.29697514 5.26261711 -0.643811
-17.63829041 8.40269279 6.08448219 -0.642693
-18.74478531 8.46259880 7.24619389 -0.763168
-20.02379990 8.40482235 8.44858456 -0.709642
-21.19145393 8.42094421 9.73862362 -0.626484
-22.31195068 8.29377365 11.06556606 -0.512231
-23.21451187 8.15951633 12.20617199 -0.432707
-24.15149689 7.98689079 13.35302258 -0.339203
-25.05254936 7.86591816 14.24687862 -0.123638
-25.97766685 7.75993824 15.03860092 0.187061
-26.89448166 7.68834448 15.67098999 0.584684
-27.81847572 7.62499714 16.22133255 1.033521
-28.75428772 7.58722210 16.71408653 1.528350
-29.69667625 7.56142807 17.15608025 2.058295
-30.65081787 7.53404236 17.55925560 2.619084
-31.60640717 7.51801348 17.92960167 3.211985
-32.56561279 7.50565195 18.27725220 3.837664
-33.52945328 7.49809790 18.60494041 4.587318
-34.49670029 7.49173784 18.91445160 5.424150
-35.46681595 7.48829317 19.20728683 6.312173
-36.44088745 7.48795366 19.48466682 7.232885
-37.41845322 7.48900700 19.74628448 8.174455
-38.40079880 7.48992491 19.99201393 9.131179
-39.39008713 7.49361038 20.21990395 10.101656
-40.38848495 7.49540949 20.42539597 11.086553
-41.40572357 7.49881077 20.59723854 12.094267
0.70215160 6.53552389 0.72989655 -0.686683
-0.31053597 6.55268621 0.72959518 -0.686879
-1.31826115 6.59155130 0.71817970 -0.669945
-2.30899596 6.62584400 0.71663094 -0.640017
-3.32139516 6.66297436 0.72440910 -0.604453
-4.31817245 6.68511581 0.73827171 -0.566393
-5.32093382 6.72616577 0.78105927 -0.520499
-6.33035707 6.75907993 0.85365295 -0.477334
-7.33854866 6.78278017 0.96189690 -0.436246
-8.31268692 6.82868671 1.15753937 -0.447647
-9.35596943 6.87121820 1.42690277 -0.471605
-10.34097099 6.89443016 1.73539925 -0.518286
-11.38590717 6.93100548 2.14354897 -0.571292
-12.41789818 7.00492716 2.58318138 -0.606807
-13.45721340 7.04617119 3.04894829 -0.617756
-14.47300625 7.16743183 3.58500862 -0.621711
-15.52853203 7.17023230 4.18505859 -0.619534
-16.56834602 7.29316711 4.90195084 -0.626691
-17.59158897 7.39100742 5.75676823 -0.686069
-18.83079529 7.34636259 6.80432415 -0.698328
-19.97667313 7.46383572 7.95228672 -0.675375
-21.19511795 7.40298796 9.30413437 -0.652862
-22.28299904 7.31755209 10.62306023 -0.574063
-23.27195740 7.15099430 11.91393471 -0.506484
-24.24248695 6.95267820 13.02399254 -0.346719
-25.10466957 6.82882738 13.96371174 -0.168228
-26.01595116 6.75013828 14.83637428 0.096152
-26.92959595 6.68996286 15.52031231 0.466680
-27.85297585 6.64101696 16.10146332 0.910805
-28.76916695 6.59468269 16.60476494 1.395930
-29.72067070 6.56040525 17.06908417 1.933133
-30.66590881 6.53767872 17.47799492 2.496536
-31.61906433 6.52064466 17.85973549 3.081907
-32.57584381 6.50758123 18.21590614 3.689783
-33.53741837 6.49863243 18.55210876 4.412386
-34.50288010 6.49315643 18.86883926 5.234553
-35.47077942 6.49045706 19.16858864 6.116481
-36.44270706 6.48886061 19.45280075 7.039200
-37.41936111 6.48971224 19.72128487 7.988379
-38.40020752 6.49188042 19.97302437 8.953563
-39.38867569 6.49350691 20.20673561 9.933133
-40.38648987 6.49683046 20.41735840 10.925910
-41.40234756 6.49924421 20.59422493 11.937390
-0.34460151 5.56125259 0.76494217 -0.755228
-1.35359228 5.58979130 0.75587082 -0.740200
-2.34883738 5.61825848 0.74713707 -0.720237
-3.36077094 5.64247417 0.73403168 -0.691009
-4.35803175 5.68437481 0.72362709 -0.632210
-5.35410786 5.71396399 0.74174500 -0.582959
-6.37803745 5.74583817 0.77511597 -0.513022
-7.35903168 5.79905939 0.85585594 -0.460759
-8.36366272 5.81346416 1.01562691 -0.443103
-9.37773895 5.83766699 1.23759079 -0.457767
-10.38526535 5.89902163 1.54317474 -0.481461
-11.42260170 5.92167902 1.90527153 -0.517240
-12.42417431 5.97531462 2.34051514 -0.587489
-13.50126839 6.04949665 2.84562683 -0.614328
-14.48037052 6.07779980 3.33815002 -0.622168
-15.58770943 6.20995903 3.97301483 -0.620064
-16.55053139 6.25387526 4.59663582 -0.627998
-17.68638420 6.26775885 5.46693134 -0.671507
-18.79723740 6.41075468 6.42512226 -0.674083
-19.91885757 6.42522669 7.58752823 -0.733708
-21.20069313 6.39191055 8.94009018 -0.671752
-22.33180618 6.28186178 10.23509979 -0.568098
-23.33488655 6.12069798 11.56330585 -0.502595
-24.27906990 6.04527044 12.75742626 -0.380964
-25.17364693 5.88760424 13.77174187 -0.211911
-26.06525230 5.75712442 14.64097977 0.044068
-26.95151329 5.68298054 15.36681461 0.381581
-27.87183380 5.63401079 15.99202442 0.805109
-28.79996681 5.59445238 16.51878738 1.289665
-29.73314667 5.56187773 16.98511314 1.811729
-30.68282890 5.53978825 17.41004372 2.372727
-31.62990189 5.52135372 17.79758644 2.959549
-32.58659363 5.51007557 18.16279793 3.567761
-33.54531097 5.49925709 18.50400734 4.274850
-34.50748444 5.49540329 18.82794762 5.091908
-35.47518158 5.49150038 19.13479042 5.974257
-36.44509506 5.49098539 19.42451859 6.894128
-37.41953278 5.49104881 19.69883537 7.839208
-38.40010452 5.49248457 19.95655060 8.803153
-39.38682938 5.49510527 20.19510078 9.780877
-40.38402939 5.49714518 20.41092300 10.772925
-41.40079498 5.49953508 20.59220505 11.785522
0.62411714 4.52278233 0.82823181 -0.828232
-0.38045344 4.54980469 0.82802200 -0.828022
-1.38974273 4.58005810 0.81620979 -0.816210
-2.38971758 4.60614777 0.79540634 -0.795406
-3.39699793 4.64129400 0.76644135 -0.750714
-4.39029455 4.66969681 0.74422646 -0.706521
-5.41010523 4.69862700 0.72602463 -0.634375
-6.39222002 4.74253988 0.73554230 -0.563827
-7.40296125 4.77483845 0.80185890 -0.502292
-8.42738724 4.80419445 0.90054703 -0.445280
-9.38255978 4.85351610 1.09406662 -0.430859
-10.43199539 4.87805128 1.39110184 -0.464396
-11.43147373 4.94886351 1.74348259 -0.515132
-12.47269058 4.96983099 2.17412758 -0.566744
-13.51294708 5.01506805 2.64003563 -0.590014
-14.54292965 5.08676577 3.16939163 -0.618487
-15.56223774 5.11554670 3.75165558 -0.650363
-16.67600441 5.19417191 4.41587639 -0.616154
-17.67553139 5.27663708 5.14575386 -0.616420
-18.75521660 5.35971212 6.13795662 -0.697849
-19.92916679 5.34947157 7.29961014 -0.756545
-21.17342567 5.36589146 8.62336445 -0.720608
-22.35834312 5.31738424 9.94327831 -0.587747
-23.39034843 5.17654848 11.28907871 -0.500382
-24.31573868 4.95337439 12.49102402 -0.407448
-25.22204018 4.85353279 13.57869530 -0.248713
-26.09818840 4.77002144 14.48591805 -0.016531
-26.99240685 4.69908285 15.25350761 0.311319
-27.88636971 4.63132191 15.88484573 0.718340
-28.82217407 4.59124994 16.44046783 1.204068
-29.75069809 4.55987978 16.91406631 1.728215
-30.69345093 4.53889513 17.34860039 2.286300
-31.64265823 4.52331209 17.74595261 2.870167
-32.59518814 4.50870371 18.11523056 3.471806
-33.55173111 4.50303364 18.46350670 4.155486
-34.51285934 4.49656773 18.79341507 4.959225
-35.47821808 4.49394798 19.10551834 5.833168
-36.44694519 4.49241209 19.40071487 6.749691
-37.42046356 4.49271154 19.67988968 7.695988
-38.39912033 4.49373865 19.94214439 8.662620
-39.38570786 4.49531841 20.18563080 9.646386
-40.38225174 4.49771738 20.40545654 10.644994
-41.39836884 4.49936199 20.59037399 11.664316
0.59588683 3.51205802 0.87864113 -0.878641
-0.41110167 3.54046106 0.88035393 -0.880354
-1.41857243 3.56712961 0.86969185 -0.869692
-2.42309856 3.59787250 0.84708214 -0.847082
-3.42974401 3.62790489 0.81393814 -0.813938
-4.43344259 3.65648699 0.77236176 -0.756991
-5.43661976 3.69756532 0.73480034 -0.691528
-6.42542696 3.73409700 0.73559189 -0.616981
-7.45670843 3.76380539 0.76113129 -0.538213
-8.44554234 3.81255150 0.82674980 -0.449493
-9.42323112 3.84083223 1.01276016 -0.443343
-10.46775055 3.88039231 1.27570724 -0.458688
-11.45309162 3.89473200 1.60246086 -0.491994
-12.50816727 3.95658970 2.04647446 -0.558133
-13.52661896 4.02156830 2.50125694 -0.592523
-14.60893536 4.03940582 3.02284431 -0.611800
-15.63007069 4.09772110 3.56502724 -0.602794
-16.64390755 4.19456387 4.23390961 -0.628810
-17.71704865 4.27182245 5.00272179 -0.635399
-18.79365158 4.28554106 5.87384701 -0.646735
-19.96914291 4.33477831 7.04026604 -0.708505
-21.18383217 4.31082916 8.31251431 -0.699334
-22.33739090 4.25456285 9.68709087 -0.650454
-23.44602776 4.14013100 11.06931973 -0.514468
-24.35384369 4.03995275 12.30337238 -0.424499
-25.28770256 3.86577654 13.44693947 -0.268669
-26.12243462 3.74660468 14.31332970 -0.040880
-27.02244377 3.67779803 15.15175343 0.262326
-27.91965294 3.62882185 15.80383873 0.664313
-28.83211327 3.58734131 16.36378479 1.128854
-29.76680946 3.56130528 16.85742188 1.649017
-30.70534515 3.53877282 17.29785156 2.204774
-31.65205383 3.52156472 17.70156097 2.789851
-32.60199356 3.51281095 18.07677269 3.393388
-33.55771637 3.50343585 18.43085861 4.065757
-34.51715469 3.49860692 18.76515007 4.865142
-35.48089981 3.49542785 19.08171082 5.739264
-36.44866943 3.49417019 19.38122749 6.657825
-37.42077637 3.49401975 19.66427040 7.604527
-38.39890289 3.49473524 19.93042946 8.571573
-39.38430023 3.49616361 20.17742348 9.554421
-40.38045502 3.49789023 20.40096474 10.552618
-41.39690781 3.49943471 20.58891296 11.572413
0.56793338 2.50460649 0.91404152 -0.914042
-0.43755245 2.52972817 0.91658211 -0.916582
-1.44414997 2.55639958 0.90841103 -0.908411
-2.45195413 2.58507442 0.88763237 -0.887632
-3.45881486 2.61267495 0.85286522 -0.852865
-4.47112083 2.64798856 0.80021286 -0.800213
-5.45576000 2.68386292 0.76184654 -0.735237
-6.48194695 2.71395683 0.73566055 -0.657973
-7.47521782 2.75408030 0.73365974 -0.560934
-8.47110271 2.80598402 0.80837822 -0.489454
-9.48940849 2.82382941 0.94865799 -0.444709
-10.46222496 2.87230468 1.19271088 -0.460249
-11.55013180 2.90763831 1.51270294 -0.462453
-12.47309113 2.94526649 1.89270401 -0.523957
-13.61340141 2.97123408 2.42852020 -0.602393
-14.59799957 3.04871178 2.88545609 -0.600699
-15.68994999 3.12381792 3.47373772 -0.599952
-16.67384148 3.13544703 4.09332657 -0.618923
-17.77833939 3.19503117 4.84686089 -0.608043
-18.80191231 3.28578925 5.69809532 -0.637744
-19.96371078 3.34446573 6.85209846 -0.708864
-21.19144821 3.36828136 8.13666439 -0.698732
-22.35494614 3.25540209 9.50605011 -0.665925
-23.46326447 3.12684011 10.87523937 -0.520881
-24.39557648 2.94888067 12.16579247 -0.442903
-25.23821640 2.89548802 13.30680752 -0.346673
-26.20389175 2.79307580 14.30203438 -0.071239
-27.04096603 2.66729355 15.02819633 0.242230
-27.93938255 2.62167978 15.73495674 0.623960
-28.85055161 2.58512568 16.30806160 1.087885
-29.77741432 2.55672836 16.81122971 1.602704
-30.71627617 2.53674698 17.25894928 2.157650
-31.65936089 2.52343321 17.66713333 2.737596
-32.60794067 2.51148820 18.04772758 3.336890
-33.56201172 2.50604749 18.40573120 3.996530
-34.52090836 2.49989319 18.74363518 4.786988
-35.48300934 2.49723339 19.06304359 5.655247
-36.44966125 2.49547029 19.36592484 6.570284
-37.42139053 2.49554086 19.65223885 7.515414
-38.39846420 2.49596071 19.92121315 8.481240
-39.38368225 2.49700570 20.17109680 9.464834
-40.37850952 2.49807811 20.39727020 10.463363
-41.39583969 2.49965954 20.58796883 11.486300
-0.46350855 1.52260411 0.93816566 -0.938166
-1.46880090 1.54838669 0.93101883 -0.931019
-2.47678542 1.57411945 0.91204071 -0.912041
-3.48640251 1.60586953 0.87761879 -0.877619
-4.49492121 1.63852370 0.82801056 -0.828011
-5.49463558 1.67018676 0.77888680 -0.763739
-6.51468658 1.70735610 0.73100090 -0.682431
-7.49476337 1.75561738 0.72728539 -0.581786
-8.51203060 1.78736794 0.79671478 -0.515465
-9.52666378 1.83232915 0.91648865 -0.461213
-10.52214336 1.83413637 1.12039948 -0.429253
-11.51969337 1.91630244 1.44862938 -0.469873
-12.58448029 1.92728043 1.85675049 -0.521146
-13.64219666 1.93969417 2.28022575 -0.534521
-14.59633160 2.02704978 2.80845261 -0.606507
-15.73518085 2.07658720 3.43759346 -0.629949
-16.70709610 2.17236328 3.99851990 -0.604086
-17.81606865 2.24516940 4.78232765 -0.622761
-18.80539322 2.26798677 5.58450890 -0.648561
-20.01788712 2.26911950 6.74665546 -0.702605
-21.15596390 2.23411131 7.95900536 -0.718829
-22.38585854 2.23983884 9.40912914 -0.678835
-23.47481537 2.10861921 10.77369976 -0.557731
-24.44298935 1.98105347 12.06821156 -0.433378
-25.29799652 1.76906443 13.17645836 -0.310693
-26.19767189 1.69991398 14.20271683 -0.098549
-27.06045723 1.70712388 15.00109386 0.207713
-27.95673370 1.63067555 15.69914627 0.590755
-28.86220932 1.58318079 16.27204132 1.049658
-29.78744698 1.55467248 16.77973938 1.563283
-30.72324944 1.53706038 17.23190498 2.117350
-31.66520882 1.52127731 17.64388466 2.697947
-32.61263275 1.51373756 18.02770615 3.298288
-33.56518173 1.50573432 18.38829613 3.952557
-34.52330017 1.50165200 18.72843552 4.740320
-35.48472977 1.49870241 19.05022240 5.608498
-36.45085907 1.49740136 19.35527611 6.525072
-37.42150116 1.49679577 19.64358330 7.471828
-38.39875793 1.49697840 19.91472244 8.440571
-39.38250351 1.49781072 20.16647720 9.424932
-40.37776566 1.49888873 20.39492798 10.425785
-41.39498520 1.49926102 20.58721161 11.450136
-0.48893487 0.51684058 0.94879341 -0.948793
-1.49462152 0.54126740 0.94113350 -0.941133
-2.50139093 0.56812674 0.92270279 -0.922703
-3.51206064 0.59444916 0.88941002 -0.889410
-4.51833057 0.62614071 0.84338188 -0.843382
-5.53795576 0.65846479 0.78066826 -0.770985
-6.52562952 0.70011359 0.73418045 -0.691302
-7.54319715 0.73765081 0.72703362 -0.593490
-8.53300381 0.77741420 0.78153610 -0.522073
-9.56141853 0.82097036 0.91027069 -0.476293
-10.58338737 0.86965048 1.08538055 -0.409638
-11.52501011 0.86140943 1.39961243 -0.459919
-12.67066479 0.91442001 1.82474136 -0.502461
-13.57982922 1.03995287 2.22817993 -0.545658
-14.72717190 1.01145113 2.82905197 -0.615225
-15.71035576 1.04978549 3.33570862 -0.602262
-16.77849960 1.09563506 4.00133705 -0.624801
-17.79043388 1.15841830 4.71564388 -0.646400
-18.91049957 1.24311578 5.58210278 -0.642040
-20.02729797 1.28193533 6.64425755 -0.688731
-21.18717957 1.28137457 7.93767166 -0.746019
-22.44089127 1.14160872 9.29684639 -0.635003
-23.51054764 1.06255877 10.70951176 -0.553302
-24.42482948 0.93230206 12.01672077 -0.481273
-25.39637756 0.85395437 13.18088913 -0.275138
-26.18874550 0.72806495 14.09384537 -0.089294
-27.06010818 0.65010071 14.99344826 0.171846
-27.95865059 0.61944085 15.69136810 0.563955
-28.87608719 0.58601749 16.26791573 1.036233
-29.79354095 0.55190510 16.76372719 1.551222
-30.72889328 0.53224075 17.21784401 2.103823
-31.66862679 0.52270728 17.63153839 2.681785
-32.61512375 0.51269132 18.01720047 3.280302
-33.56821823 0.50725240 18.37890244 3.931672
-34.52453613 0.50296873 18.72005081 4.714728
-35.48620224 0.50048560 19.04323769 5.581430
-36.45143509 0.49842373 19.34894753 6.496252
-37.42191696 0.49820051 19.63840485 7.442367
-38.39801025 0.49847919 19.91080856 8.409708
-39.38228226 0.49876219 20.16408920 9.394500
-40.37730789 0.49900198 20.39352989 10.395097
-41.39427185 0.49929532 20.58655548 11.419228
0.49181971 -0.51388139 0.94654465 -0.946545
-0.51440519 -0.48977774 0.94858170 -0.948582
-1.52003896 -0.46350622 0.94086838 -0.940868
-2.52816463 -0.43872893 0.92152405 -0.921524
-3.53728032 -0.41186813 0.88773155 -0.887732
-4.55005932 -0.38488474 0.83748245 -0.837482
-5.56174326 -0.34832361 0.77412224 -0.764389
-6.55742407 -0.30814204 0.73208427 -0.689180
-7.57676554 -0.26790300 0.72329140 -0.589535
-8.57426453 -0.24023652 0.76737595 -0.506551
-9.57328033 -0.19332178 0.90263557 -0.472390
-10.58787918 -0.12469069 1.12435341 -0.454932
-11.63407421 -0.10325278 1.41699791 -0.453536
-12.64092636 -0.08105534 1.78028297 -0.483922
-13.63038063 -0.09509330 2.27806282 -0.588751
-14.81374359 -0.02179431 2.80773544 -0.574537
-15.69218731 0.07246183 3.30170059 -0.597945
-16.90584373 0.11685677 4.03322983 -0.600355
-17.77200699 0.17127194 4.63931656 -0.616051
-19.01727295 0.19256859 5.64277649 -0.642029
-19.99026871 0.22611451 6.57925701 -0.692165
-21.22341728 0.22924484 8.00357819 -0.787701
-22.48492432 0.16570762 9.30440426 -0.629323
-23.57256317 -0.01062799 10.70568180 -0.514053
-24.46118164 -0.12253868 11.96999168 -0.432014
-25.32361221 -0.19717336 13.19178677 -0.349603
-26.23663330 -0.27684557 14.16925621 -0.094633
-27.07149315 -0.36924726 14.96477222 0.190673
-27.95704269 -0.41193515 15.68484306 0.560725
-28.87754631 -0.43187505 16.27433395 1.030124
-29.80296326 -0.45244101 16.76682472 1.555026
-30.72880173 -0.46952936 17.21363068 2.104367
-31.67020035 -0.47902167 17.63135529 2.682097
-32.61752319 -0.48669028 18.01618767 3.282207
-33.56869125 -0.49237198 18.37710190 3.932436
-34.52561951 -0.49575844 18.71863747 4.715944
-35.48672867 -0.49843746 19.04156876 5.582174
-36.45203400 -0.49937654 19.34730911 6.497041
-37.42186356 -0.50019103 19.63681793 7.442451
-38.39770126 -0.50066835 19.90977859 8.409476
-39.38258362 -0.50052482 20.16348648 9.394843
-40.37678528 -0.50097781 20.39282417 10.394607
-41.39405060 -0.50024617 20.58657646 11.419037
0.46483171 -1.52062976 0.93602562 -0.936026
-0.53864527 -1.49480319 0.93745041 -0.937450
-1.54697001 -1.47151220 0.92836761 -0.928368
-2.55458069 -1.44736516 0.90634727 -0.906347
-3.56330156 -1.41982901 0.87252235 -0.872522
-4.58154249 -1.38831067 0.81930351 -0.819304
-5.58135271 -1.34867001 0.76476288 -0.749398
-6.59794998 -1.31132746 0.72709084 -0.678753
-7.59740925 -1.27239978 0.72611427 -0.580053
-8.61707115 -1.22004128 0.78069115 -0.498840
-9.61113358 -1.20161450 0.90928841 -0.457648
-10.61636925 -1.19398046 1.14091873 -0.448728
-11.66789818 -1.12799966 1.44958878 -0.457470
-12.66715813 -1.07567489 1.82787514 -0.501085
-13.73046494 -1.04787993 2.30241013 -0.558602
-14.73971176 -0.96857148 2.80931664 -0.593788
-15.82258797 -0.97558993 3.41880989 -0.623250
-16.84592819 -0.90677023 4.02948380 -0.616114
-17.90112305 -0.85641629 4.76302719 -0.624963
-18.94195175 -0.79443222 5.64409542 -0.679606
-20.08429909 -0.79918551 6.73663044 -0.725857
-21.29712677 -0.86686122 7.97158718 -0.696276
-22.52710533 -0.91867572 9.40503120 -0.638778
-23.55310440 -0.97942102 10.74808216 -0.542544
-24.52271080 -1.12861228 12.07828331 -0.420086
-25.33807564 -1.30111432 13.16864300 -0.299429
-26.19854164 -1.29551566 14.22077751 -0.130538
-27.10197639 -1.35131371 15.03342247 0.205306
-27.95978546 -1.41664124 15.68994713 0.586125
-28.87664986 -1.44919109 16.28257561 1.051077
-29.79687691 -1.45564163 16.78071404 1.568227
-30.73119164 -1.46692157 17.23047256 2.123046
-31.67072678 -1.48134792 17.64076424 2.703255
-32.61656570 -1.48734581 18.02368736 3.303073
-33.56927872 -1.49058390 18.38409805 3.957591
-34.52528381 -1.49447417 18.72376633 4.743275
-35.48654938 -1.49632621 19.04571152 5.610986
-36.45198441 -1.49797189 19.35053062 6.526679
-37.42193985 -1.49872279 19.63921356 7.472535
-38.39807129 -1.49943757 19.91131210 8.439994
-39.38193893 -1.49974811 20.16438484 9.424390
-40.37735367 -1.49985516 20.39362335 10.425353
-41.39390564 -1.50111651 20.58652306 11.449079
-0.56868702 -2.50503731 0.91201401 -0.912014
-1.57258916 -2.47963500 0.90029716 -0.900297
-2.58416343 -2.45346642 0.87638855 -0.876389
-3.59260631 -2.42995405 0.83833504 -0.838335
-4.60543776 -2.39690924 0.79043961 -0.790440
-5.61295366 -2.35866785 0.74747276 -0.720641
-6.62624788 -2.31697154 0.72028351 -0.643402
-7.63058090 -2.27947044 0.73439217 -0.561932
-8.63463783 -2.23544264 0.81575394 -0.497558
-9.66899967 -2.19119120 0.95381546 -0.446542
-10.66491699 -2.16161942 1.16180611 -0.422840
-11.67851353 -2.13116217 1.49416733 -0.456250
-12.69794369 -2.09835553 1.92046547 -0.530055
-13.76776791 -2.05615234 2.39157486 -0.574815
-14.77869892 -2.06114459 2.90659523 -0.616546
-15.90072250 -1.98239756 3.47396278 -0.588263
-16.83392715 -1.91877341 4.07028770 -0.610276
-17.97700691 -1.85616398 4.89411449 -0.638606
-18.97794342 -1.83242917 5.70345116 -0.653987
-20.18180275 -1.80337036 6.88078308 -0.714991
-21.38349533 -1.85784888 8.10937691 -0.676251
-22.57154465 -1.96738708 9.49378586 -0.602970
-23.58213615 -2.11244583 10.89345551 -0.530320
-24.49294853 -2.19592071 12.18287468 -0.439694
-25.34607887 -2.21757841 13.28272915 -0.300773
-26.19880486 -2.38518333 14.28737640 -0.099104
-27.07164001 -2.40523028 15.08662224 0.217112
-27.96990013 -2.41695118 15.75039387 0.625859
-28.86811447 -2.44535899 16.31071854 1.090588
-29.79243279 -2.46492004 16.81232834 1.607764
-30.72826004 -2.47613192 17.25648499 2.164426
-31.66903114 -2.48095560 17.66134453 2.745569
-32.61460876 -2.48585486 18.04093170 3.344152
-33.56700134 -2.49054933 18.39895630 4.002506
-34.52435684 -2.49236441 18.73638535 4.791551
-35.48581696 -2.49504733 19.05571747 5.659027
-36.45161438 -2.49627185 19.35832405 6.573029
-37.42156982 -2.49740529 19.64510155 7.516095
-38.39805984 -2.49795580 19.91575813 8.481051
-39.38206863 -2.49856758 20.16753387 9.463274
-40.37841415 -2.50005293 20.39553261 10.463332
-41.39449310 -2.49989080 20.58702660 11.484923
0.41130528 -3.54198480 0.87111855 -0.871119
-0.59428126 -3.51252270 0.87022972 -0.870230
-1.60464823 -3.48903584 0.85455704 -0.854557
-2.61040974 -3.46488190 0.82892227 -0.828922
-3.62608647 -3.42956281 0.79385948 -0.793859
-4.63357592 -3.39858150 0.75303459 -0.737508
-5.64248085 -3.35968351 0.72321320 -0.680211
-6.64734697 -3.31546569 0.72470665 -0.606496
-7.67066717 -3.27109241 0.75873375 -0.538171
-8.67487717 -3.25264597 0.84709549 -0.469787
-9.68363094 -3.20678020 1.01542664 -0.440360
-10.72088432 -3.17022061 1.25284195 -0.432045
-11.70107269 -3.14935112 1.58314133 -0.467602
-12.75194454 -3.10533404 2.02686882 -0.537481
-13.77649021 -3.06602144 2.50562477 -0.595724
-14.84447098 -2.99504423 3.02879906 -0.624585
-15.89962006 -2.97083974 3.58812332 -0.614312
-16.93144989 -2.94180584 4.22167969 -0.605232
-18.00009155 -2.91946483 4.99442577 -0.621329
-19.09134674 -2.88778019 5.85659027 -0.612952
-20.21607399 -2.85061383 7.03631401 -0.720368
-21.42240715 -2.91958904 8.34690952 -0.721031
-22.58047104 -2.99322486 9.70333004 -0.625664
-23.59807968 -3.10649776 11.09794426 -0.528137
-24.45884895 -3.23860478 12.30311108 -0.429537
-25.33030128 -3.36372900 13.46724129 -0.300989
-26.20775414 -3.36040735 14.37887764 -0.048097
-27.04499435 -3.41079545 15.14713764 0.253227
-27.95633507 -3.43507552 15.82854939 0.659888
-28.86153984 -3.45731211 16.36990738 1.135473
-29.78789520 -3.47024250 16.85501289 1.658556
-30.72209930 -3.47685766 17.29066277 2.217982
-31.66359520 -3.48229027 17.69271088 2.801271
-32.61171341 -3.48699307 18.06805229 3.404233
-33.56371689 -3.48930740 18.42125702 4.073802
-34.52222824 -3.49156833 18.75574493 4.871807
-35.48481750 -3.49302435 19.07139397 5.744560
-36.45021057 -3.49463654 19.37079048 6.660373
-37.42189407 -3.49546075 19.65513802 7.606179
-38.39760590 -3.49680734 19.92296600 8.570533
-39.38310242 -3.49792314 20.17290688 9.553305
-40.37910080 -3.49896550 20.39834976 10.551268
-41.39562225 -3.50060606 20.58818245 11.571203
0.38122502 -4.54685926 0.81538773 -0.815388
-0.62887233 -4.52614927 0.80989647 -0.809896
-1.63362670 -4.49497652 0.79613304 -0.796133
-2.64246917 -4.45935106 0.77894592 -0.778946
-3.65742683 -4.43309021 0.75151062 -0.736129
-4.66561270 -4.39226866 0.72427368 -0.686690
-5.67347956 -4.35841084 0.71592903 -0.625444
-6.68637085 -4.32837629 0.73454475 -0.562270
-7.69828081 -4.29412603 0.79522896 -0.494827
-8.71606922 -4.24293947 0.90678215 -0.452977
-9.71423149 -4.21828508 1.09427643 -0.424749
-10.72238541 -4.16077185 1.38144875 -0.459309
-11.74538612 -4.10852051 1.74999809 -0.526418
-12.76872063 -4.08697605 2.18530083 -0.583450
-13.85852814 -4.08592939 2.67247009 -0.604492
-14.88139248 -4.09993649 3.16843224 -0.604060
-15.91777611 -4.00228739 3.74846268 -0.628638
-17.01636696 -3.96532631 4.41217232 -0.608702
-18.00715828 -3.88211751 5.11579418 -0.608064
-19.18925476 -3.87453437 6.13253403 -0.650855
-20.25749207 -3.93496871 7.23572350 -0.712603
-21.53918839 -3.98362279 8.64504147 -0.684339
-22.56505394 -4.11961555 9.94710445 -0.629938
-23.58346939 -4.20713949 11.35638905 -0.541144
-24.45844650 -4.32057047 12.51015186 -0.407077
-25.31863403 -4.33135176 13.60041809 -0.264576
-26.14441299 -4.39466810 14.50052643 -0.040271
-27.04844666 -4.41113853 15.29597664 0.299086
-27.93017006 -4.45554018 15.90376949 0.722622
-28.85896492 -4.46726799 16.44300079 1.217759
-29.77563477 -4.47724390 16.90612793 1.742784
-30.71417809 -4.48093224 17.33904266 2.301344
-31.65762711 -4.48375702 17.73406601 2.883965
-32.60587692 -4.48600245 18.10312080 3.484283
-33.56004715 -4.48847008 18.45158386 4.165507
-34.51898575 -4.49018431 18.78104019 4.967191
-35.48219681 -4.49138355 19.09287834 5.838624
-36.44988251 -4.49286413 19.38839340 6.753755
-37.42087173 -4.49444008 19.66848946 7.697074
-38.39815140 -4.49531221 19.93335342 8.661879
-39.38375092 -4.49692965 20.18000031 9.644478
-40.38070297 -4.49861670 20.40277100 10.643432
-41.39703751 -4.49987268 20.58957291 11.662997
0.34672141 -5.55540228 0.75753403 -0.748026
-0.66079336 -5.51928663 0.75511742 -0.746055
-1.66696620 -5.49204159 0.74726486 -0.732245
-2.68209958 -5.47283173 0.73104286 -0.703977
-3.68510127 -5.43045139 0.71979904 -0.676958
-4.69440031 -5.38913059 0.72557068 -0.635728
-5.71860695 -5.35701323 0.73074722 -0.571442
-6.71737432 -5.32067633 0.76823807 -0.508801
-7.73763323 -5.28297472 0.85630417 -0.461245
-8.73761559 -5.25100565 1.00555038 -0.431313
-9.74013424 -5.19658995 1.23752785 -0.459117
-10.76220608 -5.18259430 1.55701447 -0.494651
-11.78791809 -5.18615484 1.93569565 -0.541230
-12.81916618 -5.14954615 2.37356186 -0.605821
-13.89614582 -5.08690691 2.84827805 -0.615081
-14.93795013 -5.00878048 3.33178520 -0.593410
-15.97684383 -5.03384924 3.94299126 -0.607725
-17.00334930 -4.95213890 4.59759903 -0.617756
-18.07138062 -4.94791031 5.42589569 -0.659960
-19.20467377 -4.91700506 6.41978359 -0.698409
-20.38579559 -4.94304276 7.58690071 -0.694649
-21.58173370 -5.06470108 8.95459080 -0.661236
-22.64274788 -5.19094801 10.25466061 -0.556547
-23.57975197 -5.28803253 11.54667187 -0.460685
-24.43943787 -5.30425644 12.76833820 -0.391917
-25.26747704 -5.41257715 13.80240440 -0.234220
-26.14378548 -5.44232559 14.67776680 0.034320
-27.00380516 -5.47296143 15.39319801 0.374305
-27.92897606 -5.46502924 16.00997925 0.814129
-28.83388329 -5.47474337 16.51379204 1.300051
-29.76767159 -5.47659779 16.97820091 1.829512
-30.70384216 -5.48336887 17.39567375 2.390672
-31.64857864 -5.48533344 17.78402328 2.977795
-32.59888458 -5.48580456 18.14713860 3.583122
-33.55508041 -5.48699188 18.48940659 4.287292
-34.51507950 -5.48907089 18.81276894 5.101798
-35.47977066 -5.49066305 19.11935806 5.980874
-36.44806671 -5.49143171 19.40998268 6.898351
-37.42058563 -5.49254036 19.68576813 7.840985
-38.39845657 -5.49424458 19.94632339 8.801844
-39.38481522 -5.49620819 20.18907166 9.778933
-40.38182068 -5.49780464 20.40832329 10.770743
-41.39944839 -5.49970245 20.59200478 11.784208
0.31160411 -6.55943966 0.71661186 -0.673602
-0.69273156 -6.52681732 0.72587585 -0.683029
-1.71108162 -6.49565411 0.72248650 -0.674430
-2.71668053 -6.45619631 0.71161842 -0.636258
-3.72397065 -6.43455267 0.71342468 -0.594580
-4.73047495 -6.40940714 0.73878479 -0.566152
-5.75256491 -6.36343241 0.77682495 -0.516081
-6.74951315 -6.32619286 0.84576035 -0.471143
-7.76500368 -6.28415442 0.97154999 -0.446426
-8.77500820 -6.24835491 1.15392113 -0.440493
-9.78337193 -6.23711014 1.41847610 -0.465016
-10.79965496 -6.19564390 1.74593925 -0.520373
-11.83609295 -6.12337208 2.13465881 -0.564092
-12.89095879 -6.13381958 2.57231903 -0.590121
-13.91043854 -6.11805010 3.04757500 -0.613455
-15.00127602 -6.11206198 3.61078835 -0.622489
-16.00852585 -6.02296257 4.14997101 -0.588719
-17.02677917 -5.96359348 4.87206173 -0.640342
-18.20615005 -5.97488689 5.77242661 -0.650494
-19.25126076 -6.00728369 6.73160839 -0.677183
-20.49553108 -6.05414581 8.03907967 -0.698498
-21.60378456 -6.14255476 9.29691315 -0.640242
-22.69996262 -6.22297001 10.64087200 -0.509414
-23.54417229 -6.33452368 11.84538364 -0.432660
-24.42962646 -6.41935539 13.07301140 -0.340503
-25.25165367 -6.44633770 13.98279762 -0.144816
-26.11554718 -6.44568920 14.83328056 0.110260
-26.99075699 -6.45874166 15.51756954 0.472418
-27.89926147 -6.47670460 16.11003113 0.915403
-28.81961060 -6.48047304 16.60807610 1.415681
-29.75085640 -6.48571205 17.05603790 1.951779
-30.69290352 -6.48380947 17.46428490 2.516594
-31.63877869 -6.48594379 17.84226799 3.101329
-32.59114456 -6.48669815 18.19801521 3.707707
-33.54856491 -6.48712730 18.53335571 4.426578
-34.51044464 -6.48759937 18.85027695 5.244674
-35.47662735 -6.48857450 19.15068054 6.124306
-36.44627762 -6.49013901 19.43573189 7.044260
-37.41961288 -6.49137163 19.70634270 7.989413
-38.39943695 -6.49328566 19.96200752 8.953051
-39.38534546 -6.49523926 20.19976997 9.929959
-40.38377380 -6.49754715 20.41518402 10.923251
-41.40210724 -6.50014734 20.59441185 11.937298
-0.73438627 -7.54691267 0.70952225 -0.575844
-1.74246359 -7.51020002 0.71729279 -0.570786
-2.74746656 -7.47337389 0.73628616 -0.564093
-3.76095963 -7.42315531 0.76347733 -0.545775
-4.77761602 -7.39365625 0.79342651 -0.494502
-5.78419399 -7.37485933 0.85490990 -0.459446
-6.79060936 -7.33881998 0.96165466 -0.435526
-7.79098272 -7.30069351 1.12692642 -0.436898
-8.80900574 -7.25655603 1.35432243 -0.459981
-9.82779312 -7.21875191 1.63329697 -0.493317
-10.83208942 -7.18397331 1.99201965 -0.551048
-11.86938381 -7.20199680 2.41878319 -0.614940
-12.96451569 -7.15375328 2.83938599 -0.605574
-13.94282913 -7.13153553 3.30586815 -0.614125
-15.06304264 -7.05950212 3.85887718 -0.601209
-16.01642418 -7.05139256 4.42804718 -0.606818
-17.15425110 -7.00941420 5.23553181 -0.640917
-18.23349190 -6.97338152 6.10095692 -0.661032
-19.36249924 -7.01619053 7.23089314 -0.731718
-20.52425575 -7.09664154 8.45821190 -0.715570
-21.68440628 -7.23276281 9.77476692 -0.597533
-22.62106514 -7.32152700 11.04121399 -0.525243
-23.50874138 -7.36737299 12.28016472 -0.457738
-24.35708618 -7.40533161 13.31081200 -0.302183
-25.20990562 -7.40539408 14.24207306 -0.098876
-26.07365036 -7.46741676 15.02946854 0.203694
-26.97113419 -7.48523426 15.67896271 0.596824
-27.87826157 -7.49301195 16.22394180 1.050922
-28.80053139 -7.49081278 16.70622253 1.548395
-29.73351479 -7.48771191 17.14088249 2.079767
-30.67820930 -7.48720407 17.54075813 2.642573
-31.62917519 -7.48564291 17.90963936 3.235676
-32.58140564 -7.48606682 18.25510788 3.857758
-33.54168320 -7.48580503 18.58325005 4.602882
-34.50561142 -7.48654413 18.89303398 5.435940
-35.47326279 -7.48815823 19.18639565 6.321053
-36.44351196 -7.48870802 19.46505356 7.237026
-37.41934586 -7.48987389 19.73021698 8.176024
-38.39925385 -7.49213171 19.97984314 9.130151
-39.38752747 -7.49448156 20.21265984 10.099176
-40.38630295 -7.49786472 20.42233276 11.084758
-41.40444183 -7.49967480 20.59687424 12.093137
-0.76996326 -8.52050877 0.76645660 -0.509482
-1.78573871 -8.49517250 0.78090286 -0.502539
-2.79731202 -8.47948170 0.79861641 -0.478471
-3.79257488 -8.46907806 0.84382439 -0.464455
-4.80631828 -8.41354275 0.91680908 -0.463165
-5.81511211 -8.35370445 1.00840378 -0.438278
-6.82416916 -8.32287693 1.14978790 -0.439300
-7.84530258 -8.30687714 1.33773232 -0.440114
-8.80613136 -8.26007462 1.60013008 -0.496951
-9.86775780 -8.19413471 1.95004272 -0.575080
-10.89985561 -8.21994019 2.30536842 -0.606009
-11.96492767 -8.19708538 2.68548012 -0.592827
-12.95596886 -8.18034267 3.11657524 -0.614782
-14.05859089 -8.16013050 3.62907791 -0.609188
-15.03885841 -8.13596249 4.14193344 -0.586249
-16.12160492 -8.03407383 4.83484745 -0.627711
-17.12558174 -7.99314547 5.59795284 -0.686263
-18.33531570 -8.02790165 6.65944290 -0.729484
-19.43974686 -8.08587360 7.75088692 -0.746196
-20.60340500 -8.23941612 9.02417374 -0.694671
-21.69486809 -8.31563377 10.27126122 -0.563345
-22.57583618 -8.41565895 11.52023411 -0.507953
-23.47996902 -8.47950554 12.67379475 -0.378374
-24.24827576 -8.47412491 13.62109947 -0.267544
-25.15834045 -8.48316002 14.56593609 -0.037021
-26.03502846 -8.48186779 15.23696518 0.310145
-26.93910027 -8.48253345 15.84070778 0.715448
-27.85496902 -8.48735237 16.35466003 1.189087
-28.77791214 -8.49150753 16.81538010 1.699924
-29.71699524 -8.49068356 17.23786545 2.243071
-30.66416168 -8.48925781 17.62431335 2.811779
-31.61455727 -8.48727798 17.98274422 3.397843
-32.57350540 -8.48520184 18.32047653 4.035450
-33.53319168 -8.48555183 18.63834190 4.791427
-34.50038910 -8.48551559 18.94053841 5.629214
-35.46897888 -8.48586559 19.22606468 6.519783
-36.44159317 -8.48708153 19.49829865 7.441822
-37.41808701 -8.48946857 19.75657272 8.383672
-38.40018463 -8.49090481 20.00030136 9.340662
-39.38948441 -8.49452209 20.22656250 10.311175
-40.38940430 -8.49707413 20.43026161 11.295069
-41.40711594 -8.50031662 20.59932327 12.297208
-0.81314170 -9.56437111 0.89832306 -0.464084
-1.83261633 -9.53891850 0.90758896 -0.448922
-2.80121183 -9.46632195 0.95310783 -0.456081
-3.84820938 -9.40233803 1.01414108 -0.447866
-4.84994793 -9.42304611 1.09411430 -0.423149
-5.84410381 -9.40714645 1.23468208 -0.447774
-6.86022949 -9.35029888 1.41271591 -0.460298
-7.85486412 -9.28310299 1.62941551 -0.498243
-8.87230110 -9.26544571 1.94276237 -0.566385
-9.91143608 -9.29371738 2.28681946 -0.612562
-10.94565392 -9.21768093 2.63285637 -0.630170
-12.00327110 -9.20398140 3.02800751 -0.631093
-13.05857468 -9.20096493 3.45785522 -0.595334
-14.06209850 -9.12806416 3.93192101 -0.592505
-15.10003757 -9.05596924 4.53836823 -0.631526
-16.15827942 -9.07125854 5.27701187 -0.675475
-17.27221680 -9.14383793 6.16400242 -0.693793
-18.38453484 -9.15002155 7.18635845 -0.742592
-19.51770020 -9.16895199 8.34846878 -0.765535
-20.73764992 -9.31607056 9.61441422 -0.606695
-21.63756752 -9.45901394 10.79885674 -0.528124
-22.56033707 -9.44035530 12.01740837 -0.461962
-23.36306572 -9.44808769 13.00915623 -0.359462
-24.25373840 -9.48478508 14.01528931 -0.182079
-25.08833504 -9.51397419 14.77022743 0.087385
-25.99302673 -9.49374962 15.46002197 0.439678
-26.90431213 -9.50159264 16.01615906 0.876587
-27.82268524 -9.50190258 16.50125694 1.356100
-28.75641060 -9.49428558 16.94074631 1.869887
-29.69821739 -9.49194336 17.34338379 2.411131
-30.64753914 -9.48947430 17.71578598 2.977562
-31.60297775 -9.48642540 18.06352997 3.573127
-32.56147385 -9.48563480 18.39031219 4.243548
-33.52631378 -9.48390579 18.69953728 5.026480
-34.49350739 -9.48428345 18.99219131 5.874205
-35.46526337 -9.48469925 19.27045631 6.762749
-36.43954468 -9.48679352 19.53448105 7.676471
-37.41744995 -9.48788071 19.78542137 8.607298
-38.40129089 -9.49111748 20.02227402 9.556852
-39.39127350 -9.49297523 20.24192047 10.523327
-40.39329910 -9.49748611 20.43900299 11.509022
-41.40971375 -9.49933243 20.60196114 12.509301
-0.85086650 -10.53228760 1.11270714 -0.448272
-1.86288869 -10.48799133 1.12047005 -0.436946
-2.84832764 -10.50282383 1.18970871 -0.449273
-3.88813543 -10.50596905 1.28181458 -0.453687
-4.85936165 -10.40221882 1.37079430 -0.455309
-5.89819670 -10.35280323 1.52616119 -0.472913
-6.91015625 -10.37421513 1.71438217 -0.484999
-7.87309361 -10.34683609 1.99703789 -0.553635
-8.95641136 -10.31488419 2.31844711 -0.613996
-9.95919895 -10.27024174 2.60493851 -0.603963
-11.02634430 -10.30638218 3.00108147 -0.624624
-12.06189632 -10.26682663 3.38298607 -0.597097
-13.05679226 -10.18582058 3.81681442 -0.603865
-14.10865498 -10.13238144 4.40100861 -0.656458
-15.16244984 -10.14419651 5.05992317 -0.670191
-16.24201393 -10.10846138 5.80593109 -0.691633
-17.36021805 -10.08091354 6.71014214 -0.725475
-18.51541710 -10.19079781 7.80968285 -0.728439
-19.60950279 -10.38774204 9.02106762 -0.684354
-20.68664932 -10.43902683 10.25009441 -0.597358
-21.62484932 -10.46145439 11.37198544 -0.491441
-22.44914436 -10.54212856 12.50218773 -0.433759
-23.29575539 -10.55401802 13.49942780 -0.302987
-24.16111183 -10.51979256 14.33522797 -0.083706
-25.05226898 -10.49271679 15.05711365 0.219510
-25.94902420 -10.51330662 15.67376709 0.602619
-26.86897469 -10.51019764 16.19293785 1.047820
-27.79232788 -10.49983501 16.64906693 1.531302
-28.73029137 -10.49683475 17.07164383 2.057007
-29.67817307 -10.49273968 17.45803070 2.611245
-30.63142395 -10.48928547 17.81552505 3.185268
-31.58875656 -10.48712444 18.15026283 3.779099
-32.55140305 -10.48475933 18.46604156 4.475752
-33.51768112 -10.48371696 18.76497650 5.265976
-34.48776245 -10.48314285 19.04839134 6.124183
-35.46146393 -10.48429108 19.31755066 7.021290
-36.43730164 -10.48506355 19.57324219 7.939726
-37.41749191 -10.48771381 19.81642342 8.875048
-38.40176010 -10.48951721 20.04562569 9.821856
-39.39427948 -10.49401188 20.25840378 10.782120
-40.39612579 -10.49603653 20.44842148 11.753173
-41.41349030 -10.49949265 20.60540199 12.740333
0.13354480 -11.61568546 1.40894890 -0.451656
-0.89117855 -11.60035992 1.41906929 -0.454612
-1.88950491 -11.57496548 1.45632172 -0.462768
-2.90931010 -11.49466324 1.50255013 -0.468511
-3.91827512 -11.45856667 1.56411743 -0.450789
-4.88503075 -11.46364784 1.73784447 -0.508342
-5.92058754 -11.40723419 1.93882370 -0.554434
-6.95376301 -11.33860683 2.12228012 -0.563381
-7.96814251 -11.34269714 2.38405037 -0.594519
-9.03157711 -11.37017536 2.67477417 -0.577148
-9.97958469 -11.34731770 3.00181198 -0.614860
-11.10339546 -11.22643566 3.38192558 -0.618060
-12.08368015 -11.21924782 3.76427269 -0.599698
-13.14689159 -11.21059036 4.31778908 -0.637519
-14.16483212 -11.19050026 4.89432049 -0.650873
-15.25055504 -11.14810181 5.58866310 -0.685994
-16.33031845 -11.16820431 6.42267704 -0.722992
-17.47448540 -11.28632641 7.47487450 -0.755115
-18.57225418 -11.33994770 8.54450703 -0.732031
-19.72121048 -11.40060997 9.73412514 -0.636715
-20.63545418 -11.58339024 10.86819458 -0.531023
-21.52109146 -11.58834076 11.99246311 -0.463953
-22.39108658 -11.53048515 13.00585175 -0.367627
-23.23679161 -11.52947807 13.88135529 -0.194509
-24.08301735 -11.53118420 14.66534042 0.035312
-24.99570847 -11.52629185 15.35683727 0.363821
-25.91022491 -11.52475357 15.89389133 0.787932
-26.82926941 -11.51125431 16.37205124 1.246882
-27.76175117 -11.50617504 16.80972290 1.744410
-28.70533371 -11.49901009 17.20891190 2.270335
-29.65671158 -11.49487495 17.57762146 2.819489
-30.61371422 -11.48964024 17.92078400 3.392137
-31.57563972 -11.48638916 18.24261093 4.014159
-32.54003143 -11.48380375 18.54622269 4.747868
-33.50929260 -11.48247242 18.83453178 5.559171
-34.48227692 -11.48219204 19.10795975 6.417598
-35.45757675 -11.48296547 19.36731720 7.304952
-36.43551254 -11.48505974 19.61426544 8.212605
-37.41674423 -11.48633862 19.84911346 9.142507
-38.40349579 -11.48989391 20.07062912 10.092302
-39.39653397 -11.49239254 20.27541924 11.052723
-40.39942932 -11.49660492 20.45855522 12.025228
-41.41720200 -11.49909496 20.60897255 13.011800
0.11575831 -12.62577629 1.79519081 -0.503178
-0.94584244 -12.57713795 1.79379082 -0.505434
-1.92271018 -12.55070591 1.81017685 -0.490204
-2.94478726 -12.55693340 1.90446854 -0.506482
-3.92098570 -12.49404812 2.01704025 -0.540460
-4.96459293 -12.43000698 2.15682983 -0.564183
-5.96961498 -12.44776154 2.35808372 -0.593651
