X,Y,Z,C2M_distances,C2M_min_max
-14.05982971,-11.41406727,5.0570097,-0.747931,
-15.17888451,-11.50053501,5.82828999,-0.765434,
-16.31376839,-11.48778152,6.61679554,-0.744067,
-17.46551514,-11.62547493,7.58296108,-0.688773,
-18.72387886,-11.7233839,8.7486496,-0.59864,
-19.83507156,-11.81980419,10.05162144,-0.553944,
-20.79326248,-11.81094742,11.23516846,-0.511886,
-21.59704208,-11.77837276,12.32411766,-0.509283,
-22.42866135,-11.69374943,13.367136,-0.467971,
-23.25528145,-11.61608982,14.18628407,-0.308939,
-24.1314106,-11.62338066,14.93921852,-0.038461,
-25.03079987,-11.59746456,15.53026295,0.32525,
-25.922966,-11.5726738,16.0479641,0.732143,
-26.84170151,-11.54798794,16.53167343,1.184049,
-27.76506805,-11.52977085,16.97178268,1.668878,
-28.70206451,-11.51618767,17.38240814,2.181502,
-29.64846992,-11.50447845,17.76306534,2.717975,
-30.60488129,-11.49647999,18.11598969,3.283522,
-31.56485748,-11.49124241,18.44332504,3.922528,
-32.53209305,-11.48799133,18.74998093,4.683575,
-33.50396347,-11.48629093,19.03573608,5.516761,
-34.4789505,-11.48561001,19.30334473,6.391351,
-35.45777512,-11.48614407,19.55497551,7.292318,
-36.43900299,-11.48732376,19.79154205,8.210211,
-37.42311859,-11.48950291,20.01443291,9.14828,
-38.40997696,-11.49179077,20.22391891,10.101289,
-39.40356064,-11.49505043,20.41855621,11.064692,
-40.40679932,-11.49734592,20.59236526,12.038363,
-41.42797089,-11.50045967,20.73241234,13.028884,
-0.78746653,-12.59045124,2.04392242,-0.738255,
-1.79326665,-12.59658623,2.0861187,-0.737543,
-2.79514432,-12.568573,2.15391159,-0.74591,
-3.80941868,-12.55810261,2.26073074,-0.756718,
-4.84189749,-12.55017376,2.38375854,-0.752626,
-5.83824825,-12.52865791,2.54376221,-0.755723,
-6.86935568,-12.50832844,2.74202538,-0.744402,
-7.87392569,-12.5069809,2.97462082,-0.739424,
-8.88875198,-12.45995617,3.26346779,-0.752841,
-9.96869278,-12.44370747,3.60258293,-0.738475,
-10.96295929,-12.46656418,3.9782505,-0.71717,
-12.03785324,-12.4687891,4.46841812,-0.732586,
-13.0854063,-12.47440434,5.00168991,-0.726247,
-14.12601757,-12.50706196,5.67537403,-0.76238,
-15.30433655,-12.51546574,6.44871044,-0.753738,
-16.3962574,-12.6492157,7.30632305,-0.706305,
-17.66473961,-12.75440311,8.43998432,-0.649984,
-18.77782059,-12.9125576,9.64090252,-0.574913,
-19.78761673,-12.88119125,10.79058266,-0.536226,
-20.68722725,-12.81484318,11.90189266,-0.505029,
-21.50569916,-12.75492191,12.91178513,-0.472393,
-22.29641724,-12.69615078,13.79157257,-0.388404,
-23.17412949,-12.66442966,14.6096611,-0.185739,
-24.06772041,-12.62290955,15.23239136,0.13763,
-24.96388054,-12.59470844,15.77435017,0.515448,
-25.87593269,-12.56990528,16.26536369,0.94217,
-26.79486275,-12.54844761,16.71781731,1.395787,
-27.7313652,-12.53070068,17.13947105,1.882097,
-28.67481995,-12.51585102,17.52789688,2.407678,
-29.62580299,-12.50456238,17.88996315,2.957717,
-30.58612633,-12.49569893,18.22738266,3.530709,
-31.55190659,-12.49020386,18.54048538,4.205055,
-32.52179337,-12.48819256,18.83269119,4.977736,
-33.49584961,-12.48589039,19.10661888,5.819225,
-34.4735527,-12.48474121,19.3639183,6.70433,
-35.45420837,-12.485466,19.60565376,7.611559,
-36.43740463,-12.48693943,19.83307838,8.532865,
-37.42276001,-12.48891163,20.04740143,9.463451,
-38.41153336,-12.49167633,20.24895096,10.401901,
-39.40569305,-12.49439907,20.43582535,11.34879,
-40.41047287,-12.49766445,20.60249138,12.313896,
-41.43126297,-12.49996185,20.73565674,13.300214,
-0.80767483,-13.63820076,2.47734451,-0.762556,
-1.80938137,-13.59512901,2.49677467,-0.757343,
-2.8368938,-13.59377384,2.57312584,-0.753214,
-3.84820771,-13.60501957,2.66795731,-0.732025,
-4.84753466,-13.5547514,2.7944603,-0.737686,
-5.89030027,-13.54849625,2.98171043,-0.746802,
-6.90206194,-13.55053329,3.18844604,-0.731903,
-7.92916393,-13.52977753,3.4447155,-0.725378,
-8.96395397,-13.58183861,3.75653076,-0.708852,
-9.93647289,-13.51421642,4.10913277,-0.734303,
-11.0824852,-13.4762249,4.55955696,-0.747396,
-12.0534811,-13.49170685,5.01343155,-0.723649,
-13.1942625,-13.51882839,5.68536472,-0.7548,
-14.25775528,-13.61021233,6.40559864,-0.768657,
-15.38632584,-13.71737194,7.23263264,-0.71984,
-16.57023811,-13.81745148,8.20538521,-0.66295,
-17.75726128,-13.93715572,9.38625526,-0.604658,
-18.78120613,-13.9424572,10.44056702,-0.529947,
-19.70219803,-13.91590691,11.55944538,-0.502764,
-20.52047157,-13.8365612,12.56597614,-0.506214,
-21.35581017,-13.73401546,13.48777962,-0.454426,
-22.20882416,-13.69615269,14.28362083,-0.279094,
-23.08954811,-13.65702438,14.95672321,-0.013393,
-23.99036217,-13.62411022,15.53049469,0.330402,
-24.90950966,-13.59929466,16.03144646,0.734364,
-25.82282066,-13.57310009,16.4834137,1.16487,
-26.75555229,-13.54829788,16.91159058,1.634641,
-27.69807053,-13.52963448,17.3080101,2.136944,
-28.64569855,-13.51398754,17.67650414,2.659044,
-29.60569,-13.50235462,18.02145958,3.204523,
-30.56908035,-13.49574375,18.34089851,3.801575,
-31.53874969,-13.49088478,18.63925362,4.52393,
-32.51200867,-13.48662567,18.91768265,5.323165,
-33.48819351,-13.48460865,19.17943001,6.167907,
-34.46821976,-13.48461342,19.426054,7.041936,
-35.45136642,-13.4848299,19.65769005,7.936863,
-36.43589401,-13.48644066,19.87561226,8.856719,
-37.4227562,-13.48844719,20.08127594,9.789717,
-38.41313934,-13.49122047,20.27449226,10.730005,
-39.40843201,-13.49438095,20.45344353,11.677182,
-40.41418076,-13.49747562,20.61239815,12.634967,
-41.43482971,-13.50067139,20.73869514,13.606047,
41.50022507,41.49954224,20.79406738,28.700685,
40.50014114,41.49942398,20.79401207,28.002628,
39.50004959,41.4992485,20.79383469,27.316942,
38.49995804,41.49898148,20.7935524,26.631548,
37.49986649,41.49844742,20.79315567,25.947014,
36.49973679,41.49769211,20.79263115,25.278473,
35.49959564,41.49671173,20.79191399,24.631389,
34.49953461,41.49552155,20.79100609,23.990533,
33.49927902,41.49409485,20.78987885,23.349382,
32.49928665,41.49256897,20.78859329,22.718879,
31.49922752,41.49087143,20.78718185,22.114971,
30.49894333,41.48868179,20.7854538,21.5207,
29.49879646,41.48614502,20.78339195,20.926239,
28.49877167,41.48321533,20.78112221,20.344469,
27.49884605,41.48026276,20.77880287,19.793186,
26.49878502,41.47744751,20.77649689,19.24818,
25.49885178,41.47426605,20.77402687,18.704012,
24.49877167,41.47112274,20.77142525,18.187299,
23.49887085,41.4678154,20.76867104,17.693451,
22.4986763,41.46440506,20.7657299,17.19948,
21.49911308,41.46095276,20.76277351,16.721994,
20.49927521,41.45795822,20.76016235,16.279722,
19.49876022,41.45476532,20.75722313,15.839212,
18.49944496,41.45128632,20.75414276,15.410953,
17.49897003,41.44800949,20.7510891,15.022009,
16.49935913,41.44447708,20.74794769,14.636545,
15.49929714,41.44143677,20.74498558,14.265459,
14.49905205,41.43801117,20.74181747,13.934421,
13.49867439,41.43404007,20.73807907,13.604618,
12.49951935,41.43039703,20.7347126,13.29921,
11.49845219,41.42689896,20.7313652,13.027256,
10.49962807,41.42396545,20.72830391,12.756896,
9.49926567,41.42086029,20.7257309,12.526733,
8.49907207,41.41842651,20.7229538,12.314632,
7.49916315,41.4150238,20.72000122,12.110155,
6.49817801,41.41156006,20.71670914,11.953045,
5.49872065,41.40836716,20.71357918,11.799595,
4.49900913,41.40608597,20.71131706,11.678702,
3.49914908,41.40379333,20.7094326,11.585991,
2.49900222,41.40216064,20.7079277,11.499324,
1.49995327,41.40147018,20.7075634,11.463429,
0.50054187,41.40280914,20.70886421,11.434718,
41.5001297,40.49943542,20.79395485,28.002651,
40.49990845,40.49919128,20.79362679,27.286556,
39.49969482,40.49885941,20.79288292,26.588737,
38.49946976,40.49821472,20.79176331,25.902792,
37.49911118,40.4971962,20.79018593,25.216655,
36.49869919,40.49583054,20.78806686,24.531768,
35.49829102,40.49415588,20.7853241,23.86462,
34.49769592,40.49211884,20.7818222,23.218668,
33.49749756,40.48990631,20.77774811,22.576862,
32.49694443,40.48726654,20.77307129,21.934553,
31.49642181,40.48394775,20.76760292,21.307272,
30.49611473,40.48070908,20.76147652,20.706819,
29.49572754,40.47726059,20.75470543,20.111311,
28.49568558,40.47387314,20.74748611,19.516477,
27.49549866,40.47029114,20.73999214,18.943529,
26.49544144,40.46607208,20.73210526,18.395952,
25.49510956,40.46199799,20.72381592,17.84951,
24.49510193,40.45775604,20.71512413,17.310039,
23.49507713,40.45377731,20.70623398,16.806484,
22.49530983,40.45009613,20.69725418,16.312202,
21.49535942,40.44659805,20.68830872,15.81983,
20.49526787,40.44226456,20.67909622,15.36203,
19.4956398,40.43798447,20.66959381,14.920592,
18.4952507,40.43440247,20.65995979,14.4804,
17.49578285,40.4305191,20.6502533,14.076989,
16.49576187,40.42713165,20.64064789,13.691138,
15.49565506,40.42297363,20.63079262,13.306829,
14.49552631,40.41910934,20.62059975,12.965206,
13.49555111,40.41622925,20.61042976,12.63618,
12.49547768,40.41292953,20.60021019,12.315498,
11.49624443,40.40964127,20.59046745,12.040709,
10.4958477,40.40635681,20.58125877,11.768783,
9.49629688,40.40286255,20.57228661,11.523965,
8.49612045,40.39933777,20.56360817,11.310433,
7.49580002,40.39689255,20.55504608,11.100606,
6.49547338,40.39478683,20.54648399,10.939592,
5.49684811,40.39323425,20.53906059,10.787617,
4.49666786,40.39129639,20.53287506,10.659509,
3.49698091,40.38964081,20.52752495,10.567238,
2.49841285,40.38895798,20.52410889,10.479381,
1.49910975,40.38763046,20.52239418,10.441246,
0.50006455,40.38490295,20.52222633,10.408378,
41.49995041,39.49934006,20.79371262,27.316965,
40.49954605,39.49897766,20.7928257,26.588741,
39.49912262,39.49837875,20.79113388,25.871769,
38.4985199,39.49734879,20.78856277,25.173675,
37.49784088,39.4958725,20.78502846,24.486885,
36.49713135,39.49402237,20.78038597,23.799833,
35.49619675,39.49168777,20.7743988,23.11441,
34.49563599,39.48915482,20.76719856,22.44899,
33.49462891,39.48606491,20.75881767,21.803686,
32.49388123,39.4825325,20.74909973,21.160335,
31.49334145,39.47920609,20.73838615,20.518003,
30.49267197,39.4753685,20.7266655,19.895979,
29.4924469,39.47172165,20.71417618,19.298505,
28.49186516,39.46759033,20.70093536,18.702093,
27.49158859,39.46310806,20.68688393,18.108726,
26.49106216,39.458992,20.67211723,17.546167,
25.49109077,39.45468903,20.65670586,16.999431,
24.49096107,39.45075226,20.64093399,16.452905,
23.49107552,39.44668961,20.62484169,15.925728,
22.49116707,39.44265747,20.60870552,15.429773,
21.49098015,39.43825531,20.59210777,14.934324,
20.49119186,39.43434525,20.57507515,14.452703,
19.49113464,39.43122101,20.55801582,14.009535,
18.49160385,39.42751312,20.54072762,13.568301,
17.49158478,39.42419434,20.52335548,13.14212,
16.49168777,39.42041397,20.5057373,12.754527,
15.49169254,39.41753387,20.4879303,12.368781,
14.49190712,39.41477203,20.47013092,12.00897,
13.49207687,39.41178894,20.45244217,11.679563,
12.49231243,39.4094429,20.43516731,11.351665,
11.4923048,39.40703583,20.41819572,11.067287,
10.49279213,39.40412521,20.40161133,10.795652,
9.49255371,39.40196228,20.38563347,10.537939,
8.49286556,39.39965057,20.37012863,10.324915,
7.49307823,39.39778519,20.3555851,10.112938,
6.49432802,39.39699554,20.34266281,9.945235,
5.49369574,39.39525223,20.33070374,9.792632,
4.49511957,39.39396286,20.32021141,9.658112,
3.4963088,39.39359665,20.3122654,9.567143,
2.49702072,39.39189148,20.30610657,9.476421,
1.49780357,39.39099884,20.30228424,9.436795,
0.49857923,39.3907814,20.30056572,9.406359,
41.49969101,38.49928284,20.79336166,26.631595,
40.49892426,38.49869919,20.79164124,25.902776,
39.49808502,38.49777603,20.78850174,25.173698,
38.49711609,38.49636459,20.78386307,24.455179,
37.49607086,38.49449158,20.77757835,23.75667,
36.49474335,38.49200439,20.76941109,23.068624,
35.49376297,38.48939896,20.75937271,22.380678,
34.49245453,38.48628616,20.74744797,21.695038,
33.49150085,38.48283386,20.73366547,21.031408,
32.49067307,38.47945404,20.71842194,20.387117,
31.48974228,38.4755249,20.70176697,19.743105,
30.48928833,38.47184753,20.68388748,19.10194,
29.4884758,38.46761703,20.66485977,18.486196,
28.4880352,38.4635582,20.64463806,17.889602,
27.48748589,38.45958328,20.62333679,17.293033,
26.48734665,38.45533371,20.60112953,16.70553,
25.48705101,38.45161438,20.57821655,16.152553,
24.48695374,38.44743729,20.55460167,15.605549,
23.48696518,38.44382095,20.53063202,15.06103,
22.48687363,38.43959808,20.50596809,14.550771,
21.48706627,38.43626785,20.4809761,14.056143,
20.48715973,38.43338394,20.45591354,13.562479,
19.48760605,38.42987823,20.43054199,13.103653,
18.48756409,38.4272995,20.40504074,12.662953,
17.48769951,38.42436218,20.37910843,12.223511,
16.48784637,38.42212296,20.35291862,11.825992,
15.48831558,38.41999435,20.32693863,11.440927,
14.48818111,38.41806412,20.30098152,11.063453,
13.48890686,38.41665649,20.27537727,10.732597,
12.48871422,38.41481018,20.2500248,10.404057,
11.48940468,38.41314697,20.22512245,10.103729,
10.48920631,38.41213608,20.20100784,9.833716,
9.48996925,38.41088867,20.17776871,9.567513,
8.49018764,38.41041565,20.15586662,9.351813,
7.49137735,38.41001892,20.13558197,9.141501,
6.49129295,38.40857315,20.11680031,8.962465,
5.49284124,38.40846634,20.10009575,8.811934,
4.49360514,38.40824127,20.08587265,8.671913,
3.49487972,38.4074173,20.07418823,8.580104,
2.49581742,38.40731049,20.06547356,8.489933,
1.49746597,38.40713882,20.05967712,8.448743,
0.49846923,38.40623856,20.05676651,8.41765,
41.49918747,37.49917221,20.79290771,25.947078,
40.49795914,37.49837494,20.79000473,25.216701,
39.49662781,37.4970665,20.78489685,24.486898,
38.49520493,37.49534225,20.77753639,23.756687,
37.49352646,37.49286652,20.76767349,23.036182,
36.49210358,37.49028015,20.75531769,22.337356,
35.49047089,37.48707962,20.74040413,21.64837,
34.48924255,37.48377991,20.72304153,20.959509,
33.48816299,37.48048019,20.70364952,20.274625,
32.48701096,37.47666168,20.68231583,19.613723,
31.48636055,37.47302246,20.65929222,18.969804,
30.48543167,37.46898651,20.6346817,18.32543,
29.4848156,37.46516037,20.60852051,17.686577,
28.48422623,37.46126938,20.58095169,17.078315,
27.48383331,37.45729446,20.5521183,16.481586,
26.48340988,37.45366669,20.52202797,15.88508,
25.48321152,37.44971085,20.49089432,15.307468,
24.48325539,37.44668961,20.45903397,14.760429,
23.48308563,37.44281387,20.42626953,14.213387,
22.48326302,37.44008255,20.39290047,13.67821,
21.48366737,37.43762207,20.35942459,13.181307,
20.48386383,37.43454742,20.32548141,12.686745,
19.48405266,37.43270493,20.29131508,12.204027,
18.48435211,37.43033981,20.25677109,11.761516,
17.48460007,37.42903519,20.2221508,11.32206,
16.48496056,37.42806244,20.18750954,10.902841,
15.48483849,37.42699051,20.152565,10.518614,
14.48592091,37.42630005,20.11802483,10.135342,
13.48530293,37.42549896,20.08356476,9.791303,
12.48646164,37.42512512,20.04950333,9.464898,
11.48644161,37.42547226,20.01649666,9.149685,
10.48745918,37.42550659,19.984478,8.880815,
9.48787785,37.42591476,19.95389557,8.6129,
8.48912907,37.42639923,19.92532539,8.388525,
7.48935556,37.42683792,19.89866066,8.179416,
6.4907999,37.42778015,19.87420082,7.992992,
5.49156237,37.42851257,19.85270882,7.843759,
4.49295044,37.42878342,19.83407784,7.699409,
3.49400949,37.42945862,19.81894493,7.607914,
2.49596381,37.42967987,19.80744362,7.518124,
1.49678802,37.4296875,19.799757,7.474188,
0.4985469,37.43004608,19.79586029,7.444513,
41.49842834,36.49904633,20.79230499,25.278564,
40.49662781,36.49794769,20.78782082,24.531837,
39.49474335,36.49637985,20.78022957,23.799839,
38.49266052,36.49406815,20.76936531,23.068638,
37.49081421,36.49149323,20.75533104,22.337328,
36.48883438,36.48833466,20.7381134,21.615257,
35.48724747,36.48515701,20.71774292,20.916275,
34.48589325,36.48189926,20.6947155,20.227161,
33.48443222,36.47811508,20.66916847,19.537506,
32.48352814,36.47458267,20.64137268,18.853521,
31.48247147,36.47062302,20.61151886,18.196092,
30.48176956,36.46706772,20.57976532,17.551998,
29.48104286,36.46323013,20.54615593,16.907617,
28.48057747,36.45962143,20.51092339,16.273077,
27.48001671,36.45592499,20.47395134,15.670688,
26.47974586,36.45252609,20.43550873,15.074251,
25.47981834,36.4497261,20.39587784,14.479538,
24.47968102,36.44642639,20.35514641,13.915895,
23.47994041,36.44428635,20.31352043,13.370433,
22.48046303,36.44231796,20.27147865,12.825312,
21.48052788,36.43989944,20.22867203,12.307955,
20.48115921,36.43865585,20.18550682,11.81526,
19.4814949,36.43727875,20.14213943,11.322434,
18.48194122,36.4366188,20.09839821,10.86466,
17.48246765,36.43601227,20.05452347,10.426275,
16.48247147,36.43547058,20.01026344,9.990418,
15.48346615,36.43618393,19.96635056,9.601657,
14.48291397,36.43657303,19.92221642,9.21939,
13.48429966,36.43740463,19.87835312,8.85741,
12.48446846,36.43948364,19.83580208,8.533971,
11.48532391,36.4405098,19.7938652,8.21096,
10.48630714,36.44254684,19.75371933,7.937457,
9.48709393,36.4447403,19.71567154,7.672698,
8.48801041,36.44648743,19.67960548,7.436777,
7.4891243,36.44841003,19.64619827,7.230765,
6.49032068,36.45072556,19.61625099,7.036519,
5.49159813,36.45230865,19.58947945,6.889533,
4.49279356,36.45423889,19.56651878,6.74426,
3.49452162,36.45544052,19.54767227,6.651182,
2.49555874,36.45678711,19.53358459,6.563314,
1.49730003,36.45746613,19.52387428,6.517159,
0.49863839,36.45771408,19.51893997,6.487688,
41.49739456,35.49885941,20.79154015,24.631431,
40.49496841,35.49757004,20.78504181,23.864753,
39.49230957,35.49543762,20.77424812,23.114351,
38.49005508,35.49313354,20.75934029,22.380724,
37.48759079,35.49000549,20.7405014,21.648428,
36.48549271,35.48673248,20.71782303,20.916168,
35.48390961,35.48363876,20.69180679,20.193489,
34.48215866,35.47988892,20.66260338,19.494327,
33.4809494,35.47641754,20.63050652,18.804853,
32.47968674,35.47255707,20.59585762,18.114978,
31.47883415,35.46914673,20.55885696,17.432377,
30.47798538,35.46531677,20.51954651,16.778499,
29.47748566,35.46202469,20.47817612,16.134479,
28.47683907,35.45828629,20.43464279,15.489994,
27.47657394,35.45534897,20.38924408,14.862173,
26.47660828,35.45269394,20.34221077,14.264888,
25.47653961,35.45006561,20.29371643,13.669119,
24.47697258,35.44824219,20.24393463,13.080113,
23.47755051,35.44673538,20.19344902,12.529244,
22.47770309,35.44493484,20.14183426,11.984212,
21.4785347,35.44428635,20.0894928,11.444649,
20.47917175,35.44358444,20.03672981,10.946165,
19.47984123,35.44309235,19.9834156,10.454763,
18.48052406,35.44328308,19.92992783,9.972623,
17.48068619,35.44380188,19.87577629,9.534077,
16.48216629,35.44578552,19.82207108,9.099671,
15.48158741,35.44701004,19.76788712,8.690101,
14.4830761,35.44923782,19.71377182,8.311875,
13.48317623,35.45248795,19.6606369,7.937189,
12.48458099,35.45478058,19.60818291,7.61168,
11.48510647,35.45859528,19.55736923,7.292609,
10.48636341,35.46224594,19.50843239,7.00662,
9.48757935,35.46544266,19.46191406,6.745724,
8.48833847,35.46961212,19.4184227,6.50089,
7.48993921,35.47355652,19.37830544,6.299885,
6.49120998,35.47653198,19.34182739,6.10111,
5.49230242,35.47998047,19.30977058,5.956267,
4.49394083,35.48286819,19.28231812,5.813246,
3.4950192,35.48566437,19.25982857,5.718139,
2.49671531,35.48687363,19.24212074,5.632116,
1.49818122,35.48841095,19.2305603,5.584418,
0.49920532,35.48892212,19.2243557,5.555905,
41.49620819,34.49875641,20.79056358,23.990549,
40.49285507,34.49699402,20.78149414,23.218773,
39.48980331,34.49489594,20.7670536,22.448995,
38.48677063,34.49192429,20.74749565,21.695041,
37.48421478,34.48871613,20.72327042,20.959472,
36.48216629,34.48557663,20.6949501,20.227148,
35.48012161,34.48197174,20.66272736,19.494373,
34.47854996,34.47839737,20.62692833,18.770397,
33.47711182,34.47475815,20.58800697,18.071869,
32.47610092,34.47132492,20.54619789,17.382263,
31.47507668,34.46751785,20.50159454,16.692316,
30.47442245,34.46427155,20.45438576,16.011665,
29.47373199,34.46062469,20.40456009,15.361044,
28.47346687,34.45787811,20.35245323,14.717444,
27.47356033,34.45536804,20.29836655,14.074385,
26.473629,34.45328903,20.24247169,13.456231,
25.47418976,34.45168686,20.18485832,12.861754,
24.47476578,34.45052719,20.12599182,12.267818,
23.47529411,34.44937897,20.0657177,11.689622,
22.4762001,34.44887543,20.00414085,11.146101,
21.47724724,34.44899368,19.94188499,10.603978,
20.47804642,34.44915771,19.8787384,10.080121,
19.47921181,34.45050812,19.81527138,9.591662,
18.4798069,34.45168686,19.75096703,9.103355,
17.48092079,34.454319,19.68656349,8.649418,
16.48153305,34.45614243,19.62158203,8.216596,
15.48267269,34.45983887,19.55686569,7.79086,
14.48301983,34.46416473,19.49250412,7.414224,
13.4849329,34.46824265,19.42880249,7.041855,
12.48501301,34.47356796,19.36629105,6.704208,
11.48725986,34.47901917,19.30581474,6.391681,
10.48742771,34.48436737,19.2473259,6.094337,
9.48942757,34.49039078,19.19188881,5.841652,
8.4904232,34.49543381,19.1398468,5.591519,
7.49245358,34.50081635,19.0922966,5.395489,
6.49289656,34.50664139,19.04957199,5.202055,
5.49516106,34.51097107,19.01146889,5.056167,
4.49588728,34.5153656,18.97904968,4.919681,
3.49683571,34.51834869,18.95167923,4.822179,
2.49844432,34.52187347,18.93100166,4.74207,
1.4995811,34.52347183,18.91683006,4.6934,
41.49472046,33.49857712,20.7893734,23.349395,
40.49055862,33.49673843,20.77737617,22.576864,
39.48656845,33.49398422,20.75865746,21.803653,
38.48347092,33.49101257,20.73386383,21.031585,
37.48068237,33.48775482,20.70401001,20.274515,
36.47838974,33.48422241,20.66954422,19.537576,
35.47634125,33.48070145,20.63079643,18.804638,
34.47480392,33.47719955,20.58816147,18.071968,
33.47343063,33.47357559,20.5420208,17.347152,
32.47228622,33.46990967,20.49254036,16.649181,
31.47152901,33.46655655,20.43989754,15.95957,
30.47078514,33.46310043,20.38420677,15.269886,
29.47058678,33.46046066,20.32570267,14.592336,
28.4707737,33.45804977,20.26485443,13.945949,
27.47091484,33.45626068,20.20179749,13.303467,
26.47148514,33.45444107,20.13645363,12.662657,
25.47217369,33.4535675,20.06942368,12.055494,
24.47321892,33.45288086,20.00069237,11.462699,
23.47396851,33.45269012,19.93010902,10.870559,
22.47551537,33.45363617,19.85839844,10.310933,
21.47659683,33.45457077,19.78552246,9.770737,
20.47855377,33.45701599,19.71207047,9.233249,
19.4793396,33.45863342,19.63745499,8.733535,
18.48026276,33.4617424,19.56164551,8.249569,
17.48217964,33.46446228,19.48518753,7.773085,
16.48254013,33.46946335,19.40871048,7.345046,
15.48478985,33.47487259,19.33279037,6.921521,
14.48594952,33.48078156,19.25744438,6.531774,
13.48598385,33.48749161,19.18213654,6.167426,
12.48905182,33.49462509,19.10880661,5.818765,
11.48909855,33.50217056,19.03764153,5.515661,
10.49154282,33.51015091,18.96904755,5.217199,
9.49277115,33.51797867,18.90390968,4.972011,
8.49477386,33.52639008,18.84335136,4.733294,
7.49508715,33.53355026,18.78689003,4.538549,
6.4983449,33.53998566,18.73657417,4.357686,
5.49775124,33.54689407,18.69238853,4.213896,
4.49882555,33.55200577,18.65293884,4.088892,
3.50122595,33.55783844,18.62167358,3.995919,
2.50117779,33.56177521,18.59747696,3.92335,
1.50250506,33.56435394,18.57995796,3.877494,
41.49316406,32.49856186,20.78803825,22.718881,
40.48773193,32.4961853,20.77261543,21.93441,
39.483284,32.49333954,20.74907112,21.160564,
38.47979736,32.49025345,20.71878052,20.387125,
37.47694397,32.48671341,20.68284798,19.613767,
36.47454071,32.48324203,20.64187622,18.853317,
35.4727478,32.47973251,20.59634972,18.115163,
34.47088242,32.47602081,20.54645729,17.381895,
33.46973419,32.47249222,20.49257469,16.649196,
32.46876907,32.46905518,20.43507767,15.923921,
31.46801567,32.46572876,20.37392616,15.226946,
30.46777534,32.46291351,20.30945206,14.538005,
29.46804619,32.46060562,20.24212265,13.849906,
28.46832085,32.45882797,20.17213821,13.176654,
27.46885872,32.45698929,20.09941101,12.533377,
26.46985245,32.45650482,20.02439499,11.893058,
25.47136307,32.45611191,19.94733429,11.257761,
24.47209167,32.45623398,19.86801338,10.660097,
23.47415352,32.45757675,19.7871151,10.071171,
22.47567368,32.45922089,19.70469666,9.485829,
21.4778862,32.4618721,19.62099457,8.943483,
20.47921753,32.46419907,19.53588676,8.407996,
19.48072052,32.46826553,19.44923401,7.884114,
18.48258209,32.47241211,19.36127663,7.40493,
17.48373985,32.47894287,19.27250481,6.930622,
16.48659897,32.48482513,19.18337631,6.489295,
15.48802185,32.49123764,19.0946064,6.074185,
14.48949909,32.50029373,19.00725365,5.672645,
13.49180412,32.5095253,18.92079926,5.322226,
12.49201584,32.51948929,18.83494377,4.976561,
11.49616241,32.52914429,18.75210571,4.682891,
10.49619675,32.54005814,18.67279243,4.402505,
9.49836922,32.55007935,18.59641647,4.162616,
8.49990654,32.55997849,18.52514648,3.946225,
7.50248957,32.57068634,18.46051788,3.762885,
6.50196457,32.57937241,18.40055656,3.606162,
5.50426483,32.58684921,18.34738159,3.475766,
4.50579405,32.59688187,18.30399895,3.374582,
3.50540137,32.60320282,18.26736069,3.293013,
2.50483155,32.60679245,18.23655319,3.235489,
1.50597954,32.61244202,18.21683502,3.197882,
0.50512546,32.61424637,18.20485306,3.180103,
41.4912262,31.49837303,20.78649712,22.114727,
40.48468781,31.49585533,20.76714325,21.307497,
39.47978592,31.49282265,20.73848343,20.518127,
38.475914,31.48941231,20.70227242,19.74321,
37.47302246,31.48596191,20.65987015,18.969568,
36.47087097,31.48251724,20.61221123,18.196335,
35.46861267,31.4785862,20.55932236,17.431827,
34.46742249,31.47517586,20.50177002,16.69232,
33.46628189,31.47185135,20.44003677,15.959594,
32.46531296,31.46836472,20.37398529,15.226885,
31.46512604,31.4655838,20.30407524,14.50192,
30.46535873,31.4631958,20.23068619,13.807048,
29.465765,31.46137428,20.15408325,13.119549,
28.46655083,31.45970154,20.07432938,12.43276,
27.46777344,31.45927429,19.99175072,11.765972,
26.46932602,31.45883751,19.90654373,11.126684,
25.47069931,31.45950317,19.81884384,10.489033,
24.47294617,31.46101761,19.72893143,9.86321,
23.47496796,31.46282959,19.63689995,9.275294,
22.47723961,31.46541214,19.54290962,8.690977,
21.47968864,31.46889687,19.44730759,8.121519,
20.48169136,31.47360039,19.34971619,7.592548,
19.48391342,31.47868919,19.2502346,7.067065,
18.48659897,31.48605156,19.14977837,6.575369,
17.48829842,31.49312973,19.04784966,6.110552,
16.49068642,31.50243568,18.94539452,5.65693,
15.49325848,31.512743,18.84304428,5.25774,
14.49634647,31.52149391,18.74090958,4.866037,
13.49881554,31.53370857,18.64160919,4.521674,
12.50095177,31.54697609,18.54432106,4.203311,
11.50160408,31.56062508,18.44810486,3.920064,
10.50566006,31.57309341,18.35593605,3.674963,
9.50468159,31.58709717,18.2670269,3.458438,
8.51007652,31.60069847,18.18476677,3.28461,
7.50926733,31.61277962,18.10879517,3.120684,
6.51099205,31.62536621,18.0390892,2.990219,
5.51279354,31.63789177,17.97822952,2.869375,
4.51326799,31.64595032,17.9260006,2.776145,
3.51136994,31.6538887,17.88178825,2.695197,
2.51148844,31.66439629,17.84840775,2.644953,
1.51023471,31.66751099,17.82252884,2.605241,
0.51120055,31.67268372,17.81016541,2.590568,
41.48881912,30.49821472,20.78462982,21.520349,
40.48169327,30.49558258,20.76106071,20.707281,
39.47587585,30.49228859,20.72697258,19.896162,
38.47200012,30.48889923,20.68442917,19.101833,
37.46928024,30.48541451,20.63544655,18.32567,
36.46660995,30.48148727,20.58040428,17.551487,
35.46512222,30.4779377,20.51984024,16.77833,
34.46402359,30.4747715,20.45459175,16.011717,
33.46277237,30.47109604,20.38440323,15.269865,
32.46261978,30.46848297,20.30974579,14.538283,
31.46267319,30.46578598,20.23085213,13.806963,
30.46319962,30.46390152,20.14815331,13.082805,
29.46412849,30.46214867,20.06169319,12.390099,
28.46566391,30.46170235,19.97195435,11.705279,
27.46712875,30.46119118,19.87896729,11.021115,
26.46946716,30.46232986,19.78318214,10.363135,
25.47159767,30.46362495,19.68449974,9.72813,
24.47426224,30.46556854,19.58306885,9.09556,
23.47696686,30.46876717,19.47910118,8.484705,
22.48021698,30.47267342,19.37277222,7.90603,
21.48290253,30.47758865,19.2642231,7.331015,
20.48608398,30.48404503,19.15369415,6.788996,
19.48892403,30.49185753,19.04093552,6.274918,
18.4915905,30.50010872,18.92621994,5.768821,
17.49507713,30.51027679,18.81010818,5.31799,
16.49855042,30.52150345,18.69343758,4.881498,
15.50120354,30.53382492,18.57610321,4.484283,
14.50478172,30.54922676,18.45993805,4.127906,
13.50865269,30.56310844,18.3451786,3.79919,
12.50998592,30.57698441,18.23159218,3.526021,
11.51391315,30.59423256,18.12195206,3.276606,
10.51544666,30.61208725,18.01584244,3.070791,
9.51914692,30.63054085,17.91561127,2.864894,
8.51850128,30.64651108,17.81831741,2.700596,
7.52289724,30.66358948,17.73039818,2.537137,
6.52188349,30.67963219,17.6507988,2.41297,
5.52314234,30.69390297,17.57901382,2.290433,
4.52270365,30.70603561,17.51642418,2.205519,
3.52194738,30.71920395,17.46584129,2.126189,
2.51950407,30.72620583,17.42385864,2.077337,
1.51968396,30.73613739,17.39615822,2.041199,
0.5175845,30.74005699,17.38193893,2.026367,
41.48651886,29.4981575,20.78263283,20.926132,
40.47817612,29.49541664,20.75449371,20.111854,
39.47196198,29.4918766,20.71452332,19.298376,
38.46818542,29.48856163,20.6656208,18.486732,
37.46485901,29.4845829,20.60933876,17.686226,
36.46297073,29.4809761,20.54663086,16.90739,
35.46165466,29.47768402,20.4784317,16.13433,
34.46046448,29.47402,20.40485191,15.361114,
33.46017838,29.4713459,20.32616615,14.592632,
32.46001816,29.46839523,20.24265099,13.849726,
31.46068954,29.46652412,20.15454292,13.119577,
30.46158218,29.46453476,20.0619545,12.389967,
29.46325684,29.46385956,19.9654274,11.667815,
28.46511459,29.46349716,19.86511993,10.978864,
27.46788597,29.46443939,19.76144409,10.297957,
26.47044563,29.46572304,19.65449715,9.618676,
25.47342873,29.46798134,19.54402733,8.97093,
24.47678375,29.47130013,19.43034172,8.343289,
23.48046494,29.47542572,19.31366158,7.719702,
22.48461342,29.48138046,19.19465256,7.130901,
21.48799706,29.48804665,19.07236862,6.565849,
20.49220848,29.49519539,18.94704628,6.00896,
19.49599838,29.50533295,18.82007599,5.504533,
18.49945259,29.51586723,18.68963051,5.018453,
17.50495529,29.52922821,18.55879402,4.566876,
16.50747681,29.54348183,18.42627144,4.164689,
15.51284504,29.55985451,18.29334068,3.789229,
14.51713085,29.57638931,18.16082573,3.485356,
13.51990032,29.59449387,18.02814102,3.199185,
12.52558708,29.61503029,17.89801216,2.952081,
11.52837181,29.63484383,17.77138329,2.711006,
10.53107929,29.65597725,17.64865494,2.50277,
9.53536987,29.67617416,17.53217316,2.305089,
8.5363493,29.70188332,17.42471313,2.140912,
7.5375433,29.72159576,17.32123184,1.984425,
6.54036427,29.74054909,17.22860909,1.860527,
5.53798532,29.76011086,17.14608192,1.744652,
4.5360322,29.77735901,17.07208633,1.663208,
3.53429842,29.7906971,17.00980759,1.586879,
2.53215814,29.80595398,16.96360779,1.544126,
1.53011417,29.81437302,16.93089104,1.505957,
41.48386765,28.49828148,20.78055382,20.344709,
40.47447205,28.49517059,20.74749947,19.51666,
39.4681778,28.4918499,20.70158577,18.702581,
38.46353531,28.48778343,20.64556313,17.889469,
37.46109772,28.48421288,20.58171844,17.078195,
36.45923233,28.48072433,20.51136971,16.272874,
35.45811081,28.47710991,20.43499565,15.490041,
34.45762634,28.47417831,20.35297394,14.717719,
33.45756149,28.47126198,20.26556778,13.9459,
32.4582901,28.46907806,20.17294884,13.176749,
31.45905495,28.46698952,20.07513237,12.432595,
30.46084976,28.46611023,19.97257423,11.704963,
29.46300125,28.46577454,19.86559105,10.978949,
28.46577072,28.46614075,19.75429726,10.259884,
27.46926498,28.46777534,19.63943863,9.577217,
26.47232628,28.46958542,19.52031708,8.90135,
25.47647667,28.47303009,19.39740944,8.230646,
24.48094559,28.47763443,19.2709713,7.598207,
23.48575401,28.48337936,19.14101791,6.98346,
22.49028015,28.4893322,19.0070343,6.375736,
21.49574089,28.49763107,18.8701458,5.817619,
20.50027657,28.50932693,18.73027802,5.281202,
19.50549889,28.5199604,18.58626366,4.768642,
18.51106644,28.53468323,18.44037628,4.318185,
17.51579475,28.54983521,18.29156494,3.893846,
16.52256012,28.56686211,18.14145279,3.539823,
15.52760029,28.58639717,17.991045,3.219206,
14.53247738,28.60789108,17.83966637,2.922656,
13.53845882,28.6315918,17.68890572,2.651532,
12.54232216,28.6555481,17.53840065,2.396144,
11.5498476,28.6803093,17.39140511,2.171272,
10.55360603,28.70745087,17.25164604,1.958528,
9.55810452,28.73731995,17.12056541,1.77639,
8.5574646,28.76021767,16.99160957,1.605298,
7.56100368,28.78840065,16.87356567,1.463768,
6.56450844,28.81514931,16.7693367,1.340066,
5.55952406,28.83734703,16.67351723,1.230294,
4.55648565,28.86129379,16.58827972,1.153268,
3.55361819,28.8830986,16.51779938,1.086126,
2.55004525,28.89746094,16.4612236,1.043546,
1.54468811,28.90887833,16.42323685,1.009433,
41.48114014,27.49822426,20.77834892,19.793567,
40.47094345,27.49526978,20.74033737,18.94396,
39.46354294,27.49126625,20.68782616,18.10893,
38.4594574,27.48762131,20.62440109,17.29305,
37.45699692,27.48387146,20.55291748,16.481395,
36.45559692,27.48041916,20.47457695,15.670681,
35.45494843,27.4771862,20.38981438,14.862239,
34.4550209,27.47412682,20.29916382,14.074496,
33.45555496,27.47159958,20.20275307,13.303379,
32.45654297,27.46945763,20.10063744,12.533427,
31.45840836,27.46834183,19.99307823,11.765674,
30.46064949,27.46769333,19.88022614,11.021093,
29.4634285,27.46757698,19.76212692,10.296994,
28.46743774,27.46912003,19.63965225,9.576864,
27.47106552,27.4706192,19.51240349,8.863061,
26.475914,27.4739418,19.38055229,8.189367,
25.48133087,27.47847176,19.24468994,7.525489,
24.48628807,27.48361015,19.10408783,6.868652,
23.49267769,27.49031639,18.95926476,6.259125,
22.49856949,27.49981689,18.81045914,5.669058,
21.50570869,27.51071167,18.65788269,5.0989,
20.51164436,27.52142525,18.50068665,4.589154,
19.51835251,27.53701591,18.33963585,4.111375,
18.52556992,27.55364227,18.17509079,3.693112,
17.53227234,27.57263947,18.00719643,3.334839,
16.54053879,27.59487724,17.83812714,2.989843,
15.54732609,27.61794472,17.66649246,2.683678,
14.55502605,27.64311218,17.49326515,2.380792,
13.56153679,27.67060852,17.31880569,2.123372,
12.57089901,27.70192146,17.14825821,1.86979,
11.57579994,27.73708534,16.98296738,1.656931,
10.58332539,27.76701927,16.81842422,1.446638,
9.59174347,27.79744339,16.66617966,1.272537,
8.58905602,27.83900261,16.52697563,1.106734,
7.59433889,27.87221718,16.39134407,0.97776,
6.5922966,27.90181923,16.26792145,0.852565,
5.58693171,27.92840385,16.15083504,0.75752,
4.59124756,27.95653534,16.05158234,0.682623,
3.58449364,27.9815464,15.97341824,0.619414,
2.57434464,28.00887489,15.9185915,0.581576,
1.56283903,28.02054214,15.86715317,0.553365,
0.56037456,28.02536392,15.83990097,0.541115,
41.47830963,26.49841309,20.77616692,19.248689,
40.4668541,26.49499321,20.73274994,18.396391,
39.45912933,26.49119377,20.67329216,17.546398,
38.45520401,26.48725891,20.60238457,16.705419,
37.45320129,26.48388863,20.52307701,15.885023,
36.45197296,26.48023987,20.43634415,15.074123,
35.45209122,26.47710037,20.34306908,14.264716,
34.45255661,26.47432709,20.24345589,13.456072,
33.45395279,26.47195625,20.13774872,12.662589,
32.45572281,26.47044373,20.02602577,11.89284,
31.45814514,26.46932411,19.90837479,11.126135,
30.46076775,26.4689064,19.78446198,10.36155,
29.46536064,26.47029114,19.65535736,9.618275,
28.46948433,26.47167397,19.52077484,8.900805,
27.47446823,26.47437096,19.38036537,8.188709,
26.48106003,26.47877312,19.23541641,7.487398,
25.48633957,26.48351288,19.08467293,6.828082,
24.49496841,26.49109459,18.92965126,6.185767,
23.50132942,26.50031662,18.76963234,5.55796,
22.50986481,26.5102787,18.60424995,4.989136,
21.51782036,26.52214432,18.43382835,4.44872,
20.52675629,26.53827286,18.25882912,3.957959,
19.53498268,26.5547924,18.0781498,3.545491,
18.54367638,26.575037,17.89242172,3.159071,
17.55495071,26.59931183,17.70490456,2.811776,
16.56331825,26.62449074,17.51292992,2.474506,
15.57362652,26.65279579,17.31743622,2.166306,
14.58277416,26.68499374,17.11846542,1.882519,
13.59449482,26.72169113,16.92124748,1.622627,
12.60778332,26.75994492,16.72769165,1.387985,
11.61372662,26.79179192,16.53031158,1.168278,
10.62726593,26.83994484,16.35094452,0.98108,
9.6322031,26.88266182,16.17809677,0.808537,
8.6370573,26.91405678,16.00790405,0.650845,
7.63781023,26.95830345,15.85813332,0.522902,
6.63470268,26.9975605,15.70793724,0.413556,
5.63825989,27.03881073,15.58130455,0.329946,
4.62453747,27.07914734,15.47603416,0.255306,
3.61739731,27.10093307,15.36343765,0.205346,
2.6149087,27.10897064,15.25848198,0.173445,
1.61134171,27.13926888,15.22818565,0.148565,
0.58633769,27.15750694,15.21328259,0.137335,
41.47567749,25.49819946,20.77384567,18.704849,
40.46220779,25.49491119,20.72462463,17.849611,
39.45513535,25.49094963,20.65812874,16.999784,
38.4510231,25.48739624,20.57969856,16.152298,
37.44906998,25.48351288,20.49209595,15.307138,
36.44887161,25.48036385,20.39692497,14.47919,
35.44942474,25.47717285,20.29476166,13.669001,
34.45080185,25.47462463,20.18602371,12.861315,
33.45276642,25.4727211,20.07079315,12.055181,
32.45537186,25.47126579,19.94915771,11.257111,
31.45829964,25.47051811,19.82068634,10.487961,
30.46278763,25.47134781,19.68604279,9.727277,
29.46738434,25.47229004,19.54497147,8.969696,
28.47298241,25.47469521,19.39747429,8.229398,
27.47966766,25.47875214,19.24406052,7.524661,
26.48636246,25.48355293,19.08420563,6.828308,
25.49533844,25.49077797,18.91893387,6.148417,
24.50351143,25.49913406,18.7478199,5.519931,
23.51393127,25.50870705,18.57083321,4.916996,
22.52317238,25.52164841,18.38764572,4.349284,
21.53429413,25.53740883,18.1986618,3.863612,
20.5451622,25.55427933,18.00318718,3.430516,
19.55672646,25.57632065,17.80241013,3.033577,
18.56826401,25.60183144,17.59549713,2.663396,
17.58050156,25.62692261,17.38066483,2.304003,
16.5956955,25.65823364,17.16372299,1.985779,
15.60755157,25.69470406,16.94322014,1.674085,
14.62238693,25.73583221,16.72106934,1.408102,
13.63537502,25.77383995,16.48839951,1.148051,
12.65613365,25.81868935,16.26706696,0.93221,
11.66435719,25.8762989,16.05269051,0.721477,
10.68407059,25.9132843,15.83641338,0.545687,
9.690135,25.95844841,15.62920761,0.374,
8.6980381,26.01422119,15.43318176,0.248147,
7.70834112,26.05454063,15.2449913,0.124807,
6.70130873,26.10404968,15.08239746,0.026496,
5.68700743,26.14715004,14.91092682,-0.046446,
4.68777132,26.16530418,14.73476601,-0.102862,
3.68370223,26.21806335,14.62338448,-0.13611,
2.66191888,26.28474236,14.55651665,-0.148092,
1.65698826,26.27726364,14.45254135,-0.167514,
41.47206497,24.49811935,20.7710495,18.18778,
40.45861435,24.49462509,20.71600342,17.310562,
39.45054245,24.49109268,20.64250565,16.452861,
38.44683075,24.48716164,20.55614662,15.605207,
37.4457016,24.48381615,20.46029472,14.759944,
36.44572449,24.48025894,20.35632324,13.915649,
35.44712067,24.47747803,20.2450695,13.079499,
34.4495163,24.47514343,20.12701797,12.267238,
33.4520607,24.47343063,20.00205612,11.462164,
32.45565796,24.47221184,19.86994362,10.659681,
31.45981789,24.47242928,19.73081017,9.861892,
30.46506119,24.47269821,19.58457565,9.094102,
29.470541,24.47490501,19.43089867,8.341469,
28.47831535,24.47826004,19.27044868,7.597067,
27.48586845,24.48324394,19.10318184,6.868389,
26.49492836,24.48991776,18.92878342,6.185257,
25.50424194,24.49744987,18.74677277,5.519745,
24.51612663,24.50642776,18.55788612,4.882041,
23.52799034,24.51941681,18.36276245,4.316555,
22.54136467,24.53500557,18.16125298,3.803141,
21.55380821,24.55198669,17.95112038,3.352659,
20.56928253,24.57423401,17.73513222,2.946564,
19.58290863,24.59684181,17.50909233,2.545017,
18.59931183,24.62299728,17.27471733,2.179745,
17.61579323,24.66001701,17.03552055,1.836998,
16.63612556,24.69986916,16.79376984,1.517365,
15.65241146,24.73998451,16.54365158,1.225159,
14.67329502,24.78096581,16.28575706,0.955846,
13.69052887,24.84388351,16.0350914,0.723907,
12.71710873,24.88868332,15.7697382,0.509904,
11.73898983,24.93627739,15.50930119,0.320247,
10.7569809,24.99967194,15.26691532,0.155108,
9.77096081,25.05476189,15.0236187,0.00885,
8.7706604,25.10752106,14.75954247,-0.102417,
7.7859273,25.1632576,14.50498867,-0.187945,
6.79541492,25.19942474,14.25567627,-0.257083,
5.78681183,25.25623703,14.05075264,-0.312701,
4.77273226,25.33948326,13.89777756,-0.333173,
3.76890111,25.37299538,13.74282265,-0.368316,
2.75415373,25.38614082,13.59930992,-0.387759,
1.69656491,25.45434952,13.54070854,-0.378491,
41.46843719,23.49808311,20.76806259,17.693578,
40.45468521,23.49495125,20.7070446,16.807247,
39.44629669,23.49106216,20.62646294,15.925443,
38.44283295,23.48733902,20.53205299,15.06044,
37.44215012,23.48368073,20.42764091,14.213195,
36.44289017,23.48057175,20.31466484,13.36963,
35.44552994,23.47784233,20.19425392,12.528403,
34.44818497,23.4757328,20.06657219,11.688871,
33.45224762,23.47408295,19.93144989,10.870262,
32.45659637,23.47363281,19.7888546,10.070037,
31.46210861,23.47360802,19.63854218,9.273843,
30.46814919,23.47513771,19.480093,8.483064,
29.4760685,23.47790527,19.31413841,7.71852,
28.4838829,23.48238182,19.13996887,6.981831,
27.49440002,23.48767281,18.95806503,6.259258,
26.50452232,23.49474716,18.76766014,5.55719,
25.51662254,23.50427246,18.56825256,4.916927,
24.53077126,23.51662636,18.36113167,4.317616,
23.54562187,23.53042984,18.14590073,3.774573,
22.56219673,23.54685593,17.92276192,3.32556,
21.57927132,23.56947517,17.69166183,2.890098,
20.59770393,23.59118271,17.44955635,2.472258,
19.61755562,23.62193298,17.19982529,2.091935,
18.63541222,23.65833092,16.93673134,1.723967,
17.66795158,23.69649315,16.67355347,1.396221,
16.67963409,23.73669624,16.39241409,1.075429,
15.71284771,23.78303146,16.106987,0.802275,
14.73686981,23.8431797,15.81919193,0.547847,
13.77145004,23.88213539,15.50924587,0.325542,
12.79977894,23.95751572,15.22021294,0.129217,
11.82170773,24.02233505,14.90282059,-0.024478,
10.85781193,24.07111931,14.56372643,-0.165708,
9.87573624,24.12770271,14.22738647,-0.262872,
8.91318989,24.19898796,13.95571899,-0.365996,
7.87273169,24.28435135,13.63695145,-0.411314,
6.90675783,24.37603188,13.34872723,-0.426135,
5.90189219,24.43287659,13.09174347,-0.458246,
4.89251232,24.46714783,12.84968472,-0.484731,
3.86510634,24.53079414,12.67748451,-0.498955,
2.83766937,24.58574677,12.54155064,-0.491585,
1.84140682,24.60969925,12.44230938,-0.504338,
41.46512222,22.49847031,20.76519203,17.199979,
40.45065689,22.49497223,20.6980381,16.312557,
39.44194031,22.49116135,20.60999107,15.429197,
38.43910217,22.48735237,20.50743484,14.550626,
37.43870544,22.48401451,20.39419174,13.677445,
36.44068909,22.48081398,20.27217674,12.82415,
35.44380951,22.47837448,20.14232445,11.983637,
34.44799423,22.47630692,20.00483704,11.145419,
33.45259857,22.47534561,19.85941696,10.309955,
32.45848846,22.47462463,19.7057209,9.484596,
31.46528816,22.47533607,19.54397392,8.689694,
30.47270203,22.47772026,19.37360001,7.904512,
29.48203087,22.48076248,19.19433212,7.129189,
28.49201584,22.48554039,19.00606155,6.374976,
27.50354385,22.49185944,18.80808067,5.668156,
26.51708794,22.50062752,18.60081673,4.989442,
25.53189278,22.51254272,18.38428497,4.351351,
24.54875374,22.52632713,18.1579361,3.804486,
23.56715584,22.54264832,17.92135239,3.327519,
22.5858345,22.56261635,17.67343712,2.866145,
21.60960579,22.58334923,17.41521454,2.444691,
20.63401794,22.61351776,17.1479435,2.037299,
19.66008186,22.64550018,16.86878014,1.653662,
18.69079399,22.68807793,16.58413506,1.305421,
17.71235275,22.72928429,16.27828217,0.971924,
16.74666405,22.77733994,15.95599174,0.684375,
15.78515244,22.83560753,15.62543678,0.422826,
14.83345032,22.88323975,15.28594589,0.190602,
13.86217308,22.97333336,14.95438766,-0.008924,
12.89912987,23.01478577,14.55512047,-0.173812,
11.94687271,23.08541679,14.16128731,-0.297936,
10.97120762,23.18676758,13.76809883,-0.376464,
10.01705647,23.27160835,13.38383293,-0.44169,
9.0188179,23.32175255,12.94846725,-0.49253,
8.05597687,23.40229225,12.5700407,-0.505939,
7.04529047,23.47899628,12.22955799,-0.533885,
6.02434158,23.54175186,11.91179657,-0.537286,
5.01566172,23.61379623,11.66250134,-0.546125,
3.97533011,23.65018654,11.38649082,-0.532192,
2.96461439,23.69230461,11.21097565,-0.524575,
1.93439806,23.72720337,11.1396389,-0.556042,
0.84268355,23.75161743,11.06504059,-0.542653,
41.46186066,21.49851799,20.76246452,16.72252,
40.44622803,21.49524117,20.68884277,15.819471,
39.43821716,21.49138641,20.59327507,14.934537,
38.43511581,21.48765373,20.48236656,14.055477,
37.43584824,21.48414803,20.36026955,13.180021,
36.43845749,21.48132324,20.22895813,12.307095,
35.44293594,21.47881699,20.08951187,11.443644,
34.44807053,21.47737694,19.94216919,10.603271,
33.45368958,21.47602272,19.78591537,9.769677,
32.46123505,21.47635841,19.62114143,8.942114,
31.46940994,21.47745705,19.44748878,8.120716,
30.47903061,21.47919846,19.26463127,7.329945,
29.48877335,21.48355484,19.07154465,6.563939,
28.50160599,21.48870468,18.86795998,5.817094,
27.51580429,21.4967556,18.65400314,5.098549,
26.53167152,21.50707436,18.42907333,4.450807,
25.55028725,21.51917648,18.19353485,3.866195,
24.56990623,21.53470802,17.94673729,3.356389,
23.5924778,21.55561638,17.68866348,2.892238,
22.6152668,21.57787895,17.41464806,2.446423,
21.64596939,21.60651016,17.12947655,2.018683,
20.67533112,21.63660049,16.82996559,1.62594,
19.71245003,21.67487526,16.51928711,1.253913,
18.748312,21.71323013,16.19395256,0.907614,
17.78210449,21.76175117,15.84553528,0.59866,
16.83153915,21.82722282,15.48623848,0.330789,
15.8815918,21.89277649,15.11177254,0.091458,
14.92498016,21.96757317,14.71110725,-0.109242,
13.98981571,22.00047493,14.26150322,-0.284811,
13.01229954,22.10840225,13.7874918,-0.385252,
12.09608269,22.1894207,13.29917336,-0.453341,
11.13119984,22.26333046,12.79687119,-0.505137,
10.17423153,22.3462925,12.29447556,-0.532587,
9.18365479,22.47691536,11.85772038,-0.524305,
8.18213272,22.54263306,11.38683414,-0.536122,
7.17424965,22.57764816,10.9360342,-0.538337,
6.17438364,22.61782265,10.57447433,-0.551722,
5.11953926,22.60691833,10.21640682,-0.578331,
4.06196642,22.65397072,9.98862076,-0.583231,
3.04617882,22.66701317,9.79050255,-0.594887,
1.95784867,22.6270256,9.57329845,-0.607235,
0.94066942,22.64757729,9.51011848,-0.603187,
41.45862579,20.49862289,20.75953865,16.280008,
40.44225693,20.49536133,20.67966461,15.362089,
39.43402481,20.49176025,20.57639313,14.452728,
38.43169403,20.48778915,20.4569416,13.561338,
37.4331398,20.48461533,20.32585335,12.685898,
36.43683243,20.48174858,20.18522263,11.813957,
35.44246292,20.47973824,20.03615761,10.945465,
34.44852448,20.47780228,19.87836647,10.079454,
33.45571518,20.47746086,19.71132851,9.231589,
32.46483994,20.47762108,19.53526306,8.407702,
31.47428894,20.4788456,19.34921074,7.591628,
30.48586082,20.4817791,19.15299606,6.788277,
29.49813652,20.4855938,18.94545555,6.007797,
28.5130043,20.49203873,18.7262764,5.280302,
27.52971268,20.50125504,18.49546623,4.591351,
26.54915619,20.51291656,18.25247002,3.961266,
25.57170868,20.52795219,17.99744987,3.435634,
24.59563828,20.54606438,17.72888565,2.951478,
23.62182426,20.5649147,17.44446754,2.477585,
22.65256691,20.5915451,17.14408112,2.038992,
21.68815231,20.62225151,16.8277359,1.628393,
20.72873306,20.66171837,16.49848175,1.23781,
19.7682209,20.70524597,16.15079498,0.882192,
18.81996727,20.75447845,15.78677177,0.554263,
17.86688995,20.81263351,15.38891411,0.267589,
16.93338013,20.87166595,14.97431564,0.018264,
15.98773098,20.93388176,14.52657318,-0.19634,
15.04127693,20.99776268,13.98150253,-0.344796,
14.13810825,21.09633255,13.46239853,-0.43151,
13.18149662,21.17925262,12.8505249,-0.495528,
