X,Y,Z,C2M_distances,C2M_min_max
-41.48381042,28.49864388,20.83883476,20.347186,
-0.44098073,28.04881287,15.82458687,0.567679,
-1.45204628,28.05338287,15.84124756,0.587995,
-2.46388793,28.04654694,15.87849331,0.629033,
-3.47509575,28.03420639,15.93854904,0.669267,
-4.49316931,28.01611328,16.01010895,0.746093,
-5.49628687,27.99425888,16.09924507,0.825471,
-6.51280165,27.96398544,16.20497894,0.926104,
-7.5184226,27.93025398,16.32069588,1.045648,
-8.52448845,27.89533615,16.4538269,1.178641,
-9.52869034,27.865345,16.60175705,1.342594,
-10.53389359,27.82724571,16.75472641,1.514228,
-11.53176498,27.7898407,16.91600037,1.717493,
-12.53413105,27.75579262,17.08733177,1.931307,
-13.53257561,27.71938705,17.25994873,2.179421,
-14.5300827,27.68708038,17.43696594,2.435088,
-15.52710915,27.65519714,17.61523819,2.729461,
-16.52331161,27.62605858,17.7939682,3.028619,
-17.51863098,27.60033607,17.97229576,3.366766,
-18.51501083,27.57675171,18.14817238,3.718338,
-19.50894165,27.55618286,18.32105637,4.12792,
-20.50423241,27.53829575,18.49111176,4.600977,
-21.49899483,27.52298927,18.65658951,5.10468,
-22.49440956,27.5097084,18.81737137,5.672438,
-23.48908997,27.49922562,18.97330475,6.261291,
-24.48494148,27.49077415,19.12419319,6.870407,
-25.48047829,27.4835701,19.26942253,7.526161,
-26.47655296,27.47787666,19.40934372,8.190534,
-27.47255898,27.47396851,19.54407883,8.864794,
-28.46936607,27.47116089,19.6736393,9.578446,
-29.46586037,27.46930313,19.79792023,10.299182,
-30.46325874,27.46867561,19.91727448,11.023326,
-31.46065712,27.46853447,20.03133583,11.767559,
-32.45834732,27.46933174,20.14047813,12.535116,
-33.4565239,27.47076607,20.24472046,13.304295,
-34.45491028,27.47272491,20.34392548,14.074541,
-35.454319,27.47539139,20.43786621,14.861991,
-36.45461655,27.47865295,20.52581024,15.67048,
-37.45629883,27.48243523,20.60685921,16.481882,
-38.45911026,27.4863739,20.68003654,17.29413,
-39.46393204,27.4906044,20.7440834,18.111089,
-40.47021103,27.49469376,20.79727364,18.945342,
-41.48094177,27.49838066,20.83649826,19.795858,
-0.40636867,27.18640518,15.21341801,0.160477,
-1.43202412,27.18498802,15.22983742,0.174744,
-2.44609404,27.17679405,15.27266121,0.213814,
-3.45800614,27.15958786,15.34748173,0.246973,
-4.48793983,27.14224434,15.44229507,0.313798,
-5.50375128,27.1128273,15.53837776,0.392765,
-6.516294,27.079813,15.65694809,0.485779,
-7.53033352,27.04574776,15.79522324,0.603626,
-8.53802395,27.00559807,15.94479179,0.728667,
-9.54400826,26.95542526,16.1070137,0.87877,
-10.54834843,26.91472816,16.28575134,1.045509,
-11.55354118,26.87002373,16.46993446,1.23944,
-12.55221558,26.82279778,16.65966034,1.448769,
-13.55050659,26.78172684,16.8585186,1.683073,
-14.54687691,26.74112892,17.06060219,1.938746,
-15.54670143,26.7026577,17.26194572,2.220551,
-16.5393734,26.66651535,17.46172523,2.520546,
-17.53479576,26.63464737,17.66308212,2.849822,
-18.52886391,26.6066494,17.86068726,3.190268,
-19.52264595,26.58153534,18.05453491,3.57009,
-20.51604271,26.55882645,18.24371529,3.973783,
-21.50979614,26.53974915,18.42811584,4.458581,
-22.50261879,26.52458382,18.60741806,4.994348,
-23.497509,26.51113701,18.78073692,5.560919,
-24.491045,26.49955368,18.94714355,6.186184,
-25.48589516,26.4908886,19.1079216,6.830027,
-26.48046875,26.48432159,19.26247978,7.488171,
-27.47596169,26.47892952,19.41095161,8.190652,
-28.47122574,26.47501564,19.55335999,8.902665,
-29.46766853,26.47250557,19.68988037,9.620297,
-30.46341133,26.4706974,19.82046127,10.364041,
-31.46065521,26.47035408,19.94558334,11.128478,
-32.45760727,26.47050285,20.06478119,11.894473,
-33.45491028,26.47146797,20.17869186,12.663536,
-34.45306778,26.47326851,20.28716469,13.456718,
-35.45157623,26.47558594,20.3898983,14.264607,
-36.45127487,26.47856331,20.48650932,15.074104,
-37.45248413,26.48219872,20.57600975,15.885276,
-38.4550972,26.48620224,20.65718269,16.7068,
-39.45947266,26.49034882,20.72879219,17.548446,
-40.4664917,26.4946537,20.78894043,18.398225,
-41.47761917,26.49832344,20.83382797,19.250472,
0.66070306,26.33190346,14.48724556,-0.176757,
-0.36693466,26.33368683,14.47734356,-0.172318,
-1.39158797,26.34124756,14.5069828,-0.159128,
-2.41134477,26.33584976,14.57978153,-0.132268,
-3.44587922,26.30901909,14.67428303,-0.111004,
-4.4707818,26.27574539,14.77604198,-0.061639,
-5.50034428,26.25279617,14.90806198,0.012648,
-6.52125359,26.21599579,15.05267525,0.092395,
-7.53771782,26.16923141,15.20983315,0.198818,
-8.54989147,26.12358284,15.39048862,0.315526,
-9.56122303,26.07566452,15.58318329,0.457549,
-10.5757103,26.01417351,15.77648163,0.617811,
-11.57442093,25.96011925,15.98278618,0.796067,
-12.57602692,25.90917206,16.20291138,1.00221,
-13.57098866,25.85534859,16.42866707,1.217895,
-14.57365036,25.80239868,16.65585327,1.470264,
-15.56615734,25.75628853,16.88200569,1.734657,
-16.56249428,25.71481133,17.11018372,2.039174,
-17.55417442,25.67450523,17.33383369,2.348914,
-18.547575,25.6398468,17.55577469,2.700531,
-19.53912926,25.6088295,17.7720356,3.06334,
-20.53082085,25.58294678,17.98360443,3.45197,
-21.52234077,25.56042099,18.18903542,3.876971,
-22.51501274,25.53986168,18.38738441,4.357326,
-23.50684547,25.52313614,18.57831192,4.920236,
-24.4999485,25.51060486,18.76269341,5.522336,
-25.49235153,25.49952316,18.93958282,6.148832,
-26.48612595,25.49069214,19.10990906,6.829589,
-27.48028946,25.48424149,19.2729454,7.526009,
-28.47459984,25.47907639,19.42889977,8.231312,
-29.46954727,25.47548294,19.57821274,8.971773,
-30.46513367,25.47339821,19.72089577,9.729329,
-31.4606781,25.4720192,19.85719299,10.490189,
-32.45745087,25.47199059,19.98730278,11.259084,
-33.45406342,25.47243881,20.11101913,12.056362,
-34.45116425,25.47374344,20.22897339,12.861779,
-35.44916916,25.47585678,20.34090233,13.669089,
-36.44836044,25.47869873,20.44622993,14.47924,
-37.44852066,25.48200798,20.54426003,15.307617,
-38.45113754,25.48605537,20.63377571,16.153697,
-39.4552536,25.49034119,20.71307945,17.001769,
-40.46237183,25.49451828,20.78030777,17.851882,
-41.47431564,25.4985218,20.83119011,18.706331,
0.71914679,25.53910828,13.61546707,-0.386307,
-0.28417972,25.55846024,13.6541338,-0.393829,
-1.35577428,25.55903244,13.70125294,-0.396837,
-2.37646127,25.53470421,13.75771141,-0.375874,
-3.42774773,25.49565887,13.85698605,-0.362198,
-4.45063114,25.46791267,14.00248146,-0.331414,
-5.50024271,25.42034531,14.15654182,-0.279264,
-6.51575279,25.36942863,14.32514191,-0.219386,
-7.54725218,25.32236862,14.54360962,-0.134108,
-8.55161762,25.25931168,14.76043701,-0.043845,
-9.58947372,25.19316292,14.99395943,0.07718,
-10.59302139,25.13787651,15.22485542,0.228277,
-11.60254669,25.07575035,15.46762276,0.395597,
-12.60210514,25.006567,15.71367455,0.582089,
-13.60454082,24.93743324,15.96573067,0.792168,
-14.60388756,24.87652588,16.21910095,1.029662,
-15.59268093,24.82007217,16.47422981,1.291513,
-16.58829117,24.76720238,16.73337173,1.575327,
-17.57958412,24.72193718,16.98615074,1.888302,
-18.57003403,24.67907524,17.23298645,2.226273,
-19.56052589,24.64156151,17.4738903,2.581915,
-20.54807472,24.60884094,17.70892334,2.972214,
-21.53930283,24.58103561,17.93775368,3.371076,
-22.52947807,24.55763245,18.15639114,3.812782,
-23.51966095,24.53842926,18.36705399,4.322459,
-24.5096817,24.52150726,18.56974411,4.884391,
-25.50161362,24.50897217,18.7649765,5.521472,
-26.49313164,24.49820137,18.95131683,6.185701,
-27.48604202,24.48957825,19.12969971,6.86934,
-28.47889519,24.48344994,19.30011177,7.598027,
-29.47276878,24.47908592,19.46307564,8.343714,
-30.46718407,24.47578812,19.61833572,9.096227,
-31.46182251,24.4741478,19.76653481,9.863616,
-32.45759583,24.47315598,19.90771294,10.661407,
-33.45357132,24.47350502,20.04190063,11.4635,
-34.44979095,24.47441101,20.16955566,12.267539,
-35.44719315,24.47621155,20.29081535,13.079776,
-36.44534683,24.47877884,20.40512848,13.915864,
-37.4453125,24.48204613,20.51180077,14.760353,
-38.44676971,24.4859314,20.6097126,15.606491,
-39.45116806,24.49024773,20.6970787,16.45515,
-40.45795822,24.49467659,20.77153015,17.312414,
-41.47129059,24.4985199,20.8285675,18.189834,
0.82823151,24.82195473,12.68325996,-0.496034,
-0.23011805,24.79663658,12.69538689,-0.531665,
-1.27922451,24.78639603,12.75495911,-0.553055,
-2.35474038,24.78437614,12.8476696,-0.52879,
-3.40927696,24.7647438,12.95119858,-0.497407,
-4.42179871,24.70922279,13.10555077,-0.495728,
-5.51234102,24.65226364,13.30123806,-0.458988,
-6.50832462,24.60208511,13.51746559,-0.420686,
-7.56336021,24.50819016,13.75409317,-0.373223,
-8.57860851,24.43074417,14.01608276,-0.307102,
-9.60775852,24.34435654,14.29670906,-0.22201,
-10.60326862,24.27391243,14.59626198,-0.108852,
-11.63675404,24.19224548,14.89995956,0.032694,
-12.6369381,24.11265945,15.17560768,0.207187,
-13.63891602,24.03956604,15.4679718,0.40627,
-14.64177799,23.96541786,15.75305748,0.631008,
-15.62794209,23.89482498,16.03820038,0.879302,
-16.61726952,23.83180237,16.33150101,1.145334,
-17.6126709,23.77236748,16.61541367,1.45243,
-18.5981369,23.7213459,16.88876343,1.77045,
-19.58470345,23.67821503,17.15931892,2.133985,
-20.57171631,23.63969612,17.42118835,2.506074,
-21.55937958,23.60480881,17.67230225,2.911275,
-22.54706192,23.57742882,17.91427803,3.340407,
-23.53476906,23.55391884,18.14640427,3.78212,
-24.52333641,23.53513336,18.36933899,4.32124,
-25.51168442,23.51843643,18.58270836,4.91859,
-26.50270462,23.5061245,18.78706932,5.55898,
-27.49285126,23.49624634,18.98148918,6.259643,
-28.48478317,23.48840332,19.16726303,6.983035,
-29.47701836,23.48230171,19.34412956,7.719444,
-30.47001648,23.47876167,19.51289368,8.484764,
-31.46398926,23.47579002,19.6733532,9.275359,
-32.45811844,23.47476768,19.82605362,10.071224,
-33.45341873,23.4743309,19.97121429,10.871174,
-34.44905472,23.47516823,20.10899734,11.689605,
-35.4452858,23.47661591,20.23971939,12.528319,
-36.44291306,23.47892952,20.36321831,13.36999,
-37.44195557,23.48215485,20.47870445,14.213831,
-38.44290543,23.48584747,20.58509827,15.061679,
-39.44655609,23.49027252,20.68076324,15.927501,
-40.45413589,23.49477196,20.76276398,16.809118,
-41.4677124,23.49861145,20.82580948,17.695808,
-0.17764179,24.05797768,11.632514,-0.594605,
-1.21303761,24.05383682,11.66074848,-0.59672,
-2.31720519,24.04166031,11.75357246,-0.578813,
-3.34387779,24.01980972,11.91823292,-0.582791,
-4.45435953,23.9703331,12.11500168,-0.585945,
-5.45236206,23.92247772,12.33484268,-0.56142,
-6.56273651,23.83563423,12.59636402,-0.545918,
-7.5599103,23.76250458,12.8741436,-0.513372,
-8.63333225,23.65715408,13.18863297,-0.466935,
-9.62954235,23.56229782,13.50408554,-0.409428,
-10.6516037,23.43698692,13.85707474,-0.346718,
-11.66110516,23.33018303,14.21332169,-0.252699,
-12.66515255,23.25039864,14.59083366,-0.116066,
-13.69692612,23.14692688,14.92004108,0.060638,
-14.67293262,23.06349373,15.23800468,0.270568,
-15.67017651,22.98594093,15.58102036,0.493156,
-16.66028595,22.90155411,15.90089512,0.756949,
-17.65048218,22.83180237,16.21623611,1.040146,
-18.63209915,22.77224731,16.52364349,1.36327,
-19.61322784,22.719347,16.82718658,1.700715,
-20.60122108,22.67193985,17.11815453,2.071607,
-21.5839386,22.63332176,17.39450836,2.472703,
-22.56839752,22.59922791,17.66069603,2.883765,
-23.55297279,22.57190704,17.91619873,3.33861,
-24.53851318,22.54906082,18.16102982,3.810104,
-25.52560616,22.53057289,18.39461708,4.353975,
-26.51353836,22.51472473,18.61657333,4.991097,
-27.50148392,22.50246811,18.8282299,5.66905,
-28.49213219,22.49351501,19.0302639,6.376326,
-29.4824028,22.48672676,19.22185326,7.129943,
-30.47408295,22.4811306,19.40427971,7.905265,
-31.46663475,22.47812462,19.57764435,8.690727,
-32.4597168,22.47580338,19.74227715,9.485214,
-33.45359039,22.47550583,19.89885902,10.310413,
-34.44860458,22.47579002,20.04728508,11.145749,
-35.44407272,22.47707558,20.18775177,11.983778,
-36.44058609,22.4792366,20.32053185,12.824325,
-37.43883896,22.48218727,20.44503212,13.67819,
-38.43931961,22.48596764,20.56004906,14.552065,
-39.44207764,22.49012184,20.66398621,15.431035,
-40.44966888,22.49485397,20.75389671,16.314124,
-41.46467972,22.49876022,20.82321167,17.202415,
-0.12631558,23.24669075,10.40348053,-0.620478,
-1.11780906,23.28106308,10.48419476,-0.622979,
-2.26582026,23.26191521,10.62914944,-0.642782,
-3.30998397,23.24763107,10.77082348,-0.626315,
-4.41362906,23.22606468,10.99226284,-0.617478,
-5.48441744,23.1679821,11.23018837,-0.593981,
-6.54763126,23.09374428,11.54595852,-0.59534,
-7.59832859,23.01270103,11.88620663,-0.588837,
-8.64958858,22.90680695,12.26913834,-0.570517,
-9.67817688,22.79015923,12.65141869,-0.544918,
-10.73314762,22.66459656,13.03854561,-0.481047,
-11.70297813,22.53815079,13.44002342,-0.421611,
-12.74397373,22.37774658,13.86501217,-0.346848,
-13.7217207,22.28520203,14.28223991,-0.209709,
-14.72392941,22.19045067,14.69896698,-0.042679,
-15.71910286,22.07402229,15.07172775,0.159472,
-16.71624565,21.98412323,15.43762207,0.403534,
-17.6885376,21.90434837,15.78945351,0.674828,
-18.67217827,21.83470535,16.14523697,0.974684,
-19.654459,21.76344681,16.47592163,1.300277,
-20.63243675,21.70843506,16.79541397,1.665642,
-21.61248589,21.66337013,17.10388184,2.045343,
-22.59466934,21.6250782,17.39752388,2.470658,
-23.5746994,21.59168816,17.67689896,2.908729,
-24.55714607,21.56406975,17.94478989,3.365007,
-25.54206085,21.5412941,18.1989727,3.870595,
-26.52618217,21.52412796,18.44044113,4.453083,
-27.51306152,21.5105648,18.67074776,5.100189,
-28.50022316,21.49906349,18.8889904,5.817971,
-29.48958969,21.49056244,19.09635925,6.565239,
-30.47934723,21.48461533,19.29278755,7.330624,
-31.47016907,21.4799881,19.47938156,8.120625,
-32.46194458,21.47775459,19.65662575,8.942033,
-33.45471573,21.47612572,19.82473755,9.769822,
-34.44829941,21.47636414,19.98413658,10.602767,
-35.44308853,21.47758675,20.13496208,11.443579,
-36.43873978,21.47946358,20.27720261,12.30742,
-37.43603134,21.48239517,20.41077042,13.180797,
-38.43560028,21.48601151,20.53459549,14.056981,
-39.43817139,21.49020004,20.6468544,14.936139,
-40.44484329,21.49469185,20.74467278,15.820524,
-41.46168518,21.49877167,20.82062721,16.725233,
-0.00253077,22.24074936,9.123909,-0.709092,
-1.11412036,22.24217033,9.154603,-0.710103,
-2.14873433,22.28911209,9.27394581,-0.681445,
-3.2820375,22.32793617,9.51585674,-0.688518,
-4.37656355,22.33821106,9.74724007,-0.658448,
-5.44172907,22.3454113,10.08042908,-0.652225,
-6.55135298,22.30548096,10.43690205,-0.6388,
-7.61390781,22.22948647,10.80734348,-0.637893,
-8.71081161,22.13381386,11.20328331,-0.601185,
-9.73921013,22.02378082,11.64866638,-0.58394,
-10.79450703,21.9024086,12.12926579,-0.561356,
-11.79093075,21.75556564,12.59476757,-0.523208,
-12.82179832,21.60742188,13.10358429,-0.475342,
-13.7839632,21.46016502,13.56044197,-0.392283,
-14.78888321,21.3033886,14.05355453,-0.291728,
-15.77388477,21.19763565,14.51607895,-0.11967,
-16.76652908,21.08867645,14.94612312,0.090314,
-17.74376297,20.98917961,15.34812737,0.34201,
-18.72110367,20.88733101,15.73045921,0.611417,
-19.69625664,20.81952286,16.10615921,0.937465,
-20.67212296,20.75479889,16.46234703,1.277783,
-21.64976501,20.69577217,16.79841042,1.663758,
-22.62269402,20.64972687,17.11990547,2.067785,
-23.60080719,20.61289597,17.42929077,2.497781,
-24.5802536,20.58046913,17.72067451,2.96437,
-25.56037521,20.55568314,17.99721336,3.443406,
-26.54198837,20.53469658,18.25954437,3.96456,
-27.52621078,20.51746368,18.50832176,4.593572,
-28.51068306,20.50507545,18.7440834,5.281723,
-29.49803352,20.49521255,18.96756363,6.009396,
-30.48575401,20.48774338,19.1787281,6.788239,
-31.47475815,20.48275185,19.37911034,7.591629,
-32.4651413,20.47901726,19.56909561,8.406909,
-33.45645523,20.47751999,19.74909019,9.231141,
-34.44876099,20.47698021,19.91967583,10.078842,
-35.44223404,20.47782516,20.08109665,10.944566,
-36.43729782,20.47982407,20.23326302,11.814268,
-37.43347549,20.48248863,20.3759594,12.686532,
-38.43209076,20.48609734,20.50869751,13.562711,
-39.43409729,20.49028397,20.62947083,14.454338,
-40.44074631,20.49465179,20.73508072,15.362974,
-41.45799255,20.49860191,20.81764793,16.282243,
0.03524189,20.92015266,7.58746147,-0.737579,
-1.04267728,21.00366974,7.71183395,-0.743068,
-2.09722328,21.05633545,7.85740948,-0.738146,
-3.17404127,21.115942,8.09797573,-0.751271,
-4.31096983,21.21401024,8.4166193,-0.742597,
-5.37468481,21.26107407,8.74666309,-0.725675,
-6.52131081,21.30786133,9.1727581,-0.709637,
-7.60286713,21.33165741,9.60870457,-0.676913,
-8.72809315,21.31054688,10.13000965,-0.654261,
-9.79679966,21.25075531,10.61038113,-0.608589,
-10.86096382,21.11843491,11.1407423,-0.598802,
-11.87885761,20.97939301,11.6927681,-0.589903,
-12.89501476,20.81243134,12.24578381,-0.559219,
-13.89424801,20.6584053,12.80669498,-0.514923,
-14.87565708,20.48820305,13.34025097,-0.430841,
-15.85540581,20.32116318,13.86737823,-0.332096,
-16.81201935,20.19426727,14.39140511,-0.174761,
-17.80508423,20.07663345,14.88191223,0.027765,
-18.7821579,19.97551537,15.30859852,0.307226,
-19.74625397,19.87454414,15.71154976,0.594019,
-20.71944046,19.7959938,16.10694885,0.931924,
-21.69053841,19.73566055,16.47987556,1.299318,
-22.6568203,19.68226051,16.83403969,1.691969,
-23.63233757,19.63450813,17.17171288,2.123175,
-24.60598755,19.59865952,17.48888779,2.570478,
-25.5818615,19.56865501,17.7894249,3.050213,
-26.56136131,19.54521561,18.07391548,3.557366,
-27.54091835,19.52687645,18.34206772,4.117894,
-28.5237236,19.51124573,18.59595299,4.77178,
-29.5076313,19.49983788,18.83567619,5.505134,
-30.49342537,19.49126816,19.06243134,6.274229,
-31.48079109,19.48487091,19.27679634,7.066569,
-32.46905899,19.48084641,19.47971916,7.882791,
-33.45879745,19.47864151,19.67222595,8.731961,
-34.44993973,19.47785759,19.8542347,9.589831,
-35.44207382,19.47826958,20.02623367,10.453123,
-36.43586349,19.47995567,20.18848991,11.321124,
-37.43134689,19.48267746,20.34067345,12.203472,
-38.42875671,19.48614883,20.48233795,13.103812,
-39.43015671,19.4903717,20.61180496,14.010492,
-40.43668747,19.49469566,20.72522736,14.921614,
-41.45435333,19.49862289,20.81444931,15.841621,
0.02859479,19.54058075,6.30655766,-0.804898,
-1.01715481,19.56607246,6.30300903,-0.7713,
-2.04974318,19.65010452,6.48245621,-0.788904,
-3.13206363,19.71854591,6.65640736,-0.763886,
-4.20846653,19.82961845,6.96575356,-0.769056,
-5.31446028,19.9808979,7.36107159,-0.76821,
-6.38097763,20.12473869,7.82817268,-0.757125,
-7.58859396,20.24964523,8.36425591,-0.730094,
-8.65462112,20.27622986,8.87638187,-0.709524,
-9.81481552,20.30569077,9.50143051,-0.69208,
-10.88911343,20.30188751,10.07900429,-0.616777,
-11.98676491,20.15784836,10.72033882,-0.62789,
-12.99221134,20.02698708,11.31638432,-0.587486,
-13.9886322,19.85108376,11.96391964,-0.578864,
-15.01002216,19.66734314,12.58918762,-0.529016,
-15.94338608,19.50600052,13.16564178,-0.444522,
-16.90372467,19.31623459,13.77194786,-0.369003,
-17.86596298,19.16207695,14.33806992,-0.213733,
-18.83865738,19.05221176,14.85682487,0.011626,
-19.81302834,18.95061493,15.31396675,0.300241,
-20.77348137,18.85375786,15.7335701,0.616948,
-21.73212242,18.77610588,16.14610291,0.961079,
-22.70151138,18.7121315,16.53952217,1.349976,
-23.66499138,18.66105843,16.90529251,1.759527,
-24.63767815,18.61800385,17.25161362,2.211349,
-25.60800743,18.5833168,17.57530594,2.685836,
-26.58184624,18.55587959,17.88255501,3.175068,
-27.55878448,18.53452492,18.17228889,3.702478,
-28.53867531,18.51764297,18.44449425,4.323159,
-29.51868439,18.50448227,18.7010479,5.020407,
-30.5026989,18.49483871,18.94412231,5.769359,
-31.48776054,18.48794556,19.17296791,6.574543,
-32.47431946,18.48298645,19.38925934,7.404422,
-33.46179581,18.47945786,19.59387589,8.24757,
-34.45146942,18.47854805,19.78781128,9.101614,
-35.44268799,18.47877121,19.97065926,9.971093,
-36.43482208,18.48023415,20.14299774,10.862793,
-37.42941284,18.48285866,20.30488205,11.761177,
-38.42584991,18.48616409,20.45553398,12.662753,
-39.42596436,18.4903965,20.59374428,13.568598,
-40.43285751,18.49482918,20.71528816,14.481451,
-41.45045853,18.49869728,20.81118965,15.412794,
-0.01147751,18.14644241,5.12350082,-0.779156,
-0.95899385,18.26708221,5.26649189,-0.809202,
-2.05651808,18.32287598,5.38880539,-0.821404,
-3.13598251,18.41652298,5.5442934,-0.787582,
-4.10463715,18.49026871,5.7850399,-0.798734,
-5.23020601,18.62454987,6.11714077,-0.786634,
-6.30233717,18.73594093,6.48474026,-0.779302,
-7.44019794,18.88925362,7.01595211,-0.786747,
-8.59862423,19.10423279,7.62844181,-0.745427,
-9.718894,19.21472168,8.25689793,-0.72286,
-10.87602139,19.27523422,8.97799301,-0.704358,
-12.02357292,19.27799606,9.6815033,-0.662198,
-13.06889343,19.19528198,10.36803532,-0.629539,
-14.13565922,19.01361656,11.06377888,-0.604319,
-15.11240005,18.85403061,11.73599911,-0.562147,
-16.07360458,18.67240143,12.43854904,-0.532672,
-17.03631401,18.46435738,13.09348488,-0.467628,
-17.95694733,18.2837677,13.71563339,-0.370652,
-18.90645409,18.13102531,14.33813953,-0.219745,
-19.87497902,18.01680756,14.88032341,0.028677,
-20.83679771,17.91856194,15.35874081,0.328357,
-21.78642845,17.82414436,15.80415726,0.660322,
-22.74476814,17.747612,16.23322296,1.02337,
-23.70857239,17.68621635,16.63339043,1.434823,
-24.67161942,17.63737869,17.00547028,1.871614,
-25.63631439,17.6000824,17.35702324,2.331639,
-26.60691071,17.56840324,17.68819427,2.831996,
-27.57938194,17.54290771,17.99827576,3.349197,
-28.55428505,17.52449989,18.29026031,3.902025,
-29.53269958,17.51025581,18.56542397,4.570131,
-30.51327324,17.4985218,18.82398224,5.319099,
-31.4958744,17.4899807,19.06750679,6.1107,
-32.4797554,17.48456001,19.29756546,6.929141,
-33.46640778,17.48149681,19.51516533,7.772574,
-34.45380402,17.47918129,19.72034454,8.647037,
-35.44327164,17.47926712,19.9143486,9.532554,
-36.43462372,17.48045349,20.09700775,10.424453,
-37.42749786,17.48296165,20.26853752,11.320967,
-38.42329407,17.48642731,20.42844009,12.223635,
-39.42227173,17.49029541,20.57526779,13.142017,
-40.42847443,17.49486923,20.70514297,14.077395,
-41.44692993,17.49891281,20.80811119,15.02395,
0.93896711,16.9673996,4.3288784,-0.798797,
0.0296645,17.08336258,4.33812141,-0.75885,
-1.00651395,17.03363609,4.39861107,-0.821004,
-2.11399817,17.05360603,4.45502281,-0.802664,
-3.04257274,17.15721893,4.63578224,-0.823711,
-4.18644905,17.24801254,4.84646225,-0.799117,
-5.11947584,17.31076431,5.0771513,-0.799028,
-6.30773401,17.43559456,5.46211433,-0.813508,
-7.27118969,17.58266258,5.83803558,-0.781903,
-8.48512554,17.72895241,6.41308403,-0.807899,
-9.60740566,17.94552612,6.99747276,-0.739693,
-10.76718903,18.07328415,7.75792313,-0.762284,
-11.99560356,18.19558144,8.56646919,-0.718666,
-13.09532166,18.21700859,9.31647873,-0.677664,
-14.22608662,18.16612816,10.15062428,-0.62998,
-15.2016573,18.05089951,10.8856411,-0.587252,
-16.20616722,17.83807182,11.68072796,-0.588444,
-17.16282463,17.6404705,12.39668179,-0.530611,
-18.08358002,17.44543076,13.10351467,-0.473099,
-19.00013542,17.24460793,13.76341724,-0.367822,
-19.9581871,17.08647156,14.39749813,-0.187623,
-20.89308929,16.97278214,14.94725513,0.070409,
-21.85294914,16.8737812,15.460783,0.380261,
-22.79546738,16.78487587,15.91764545,0.736143,
-23.75677299,16.71452522,16.35378838,1.127942,
-24.7089901,16.66037369,16.75427246,1.555239,
-25.67015457,16.61421204,17.13422203,2.017897,
-26.63351822,16.58002663,17.48984909,2.500508,
-27.60190201,16.55367088,17.82300949,3.008072,
-28.57315826,16.53177643,18.13515663,3.551649,
-29.54800606,16.51441574,18.42778397,4.170924,
-30.52541542,16.50184822,18.70230675,4.883978,
-31.50473404,16.49334717,18.96118164,5.657215,
-32.48685455,16.48687744,19.205513,6.488479,
-33.47119904,16.48207474,19.43554878,7.344286,
-34.45697784,16.48038864,19.65258026,8.215477,
-35.44472885,16.47969627,19.85748863,9.097017,
-36.43460846,16.48083687,20.05051613,9.989075,
-37.42604828,16.48305702,20.23178864,10.901104,
-38.42063904,16.48658943,20.40110588,11.825678,
-39.41905975,16.49038696,20.55648804,12.754893,
-40.42374039,16.49477959,20.69465065,13.690267,
-41.4435997,16.4987545,20.8049984,14.638531,
0.96192092,15.85189724,3.61746407,-0.78042,
-0.02422966,15.86450481,3.64414597,-0.811912,
-1.10459745,15.92599201,3.69948196,-0.811538,
-2.08300829,16.01212883,3.78952217,-0.801937,
-3.12011766,16.01387405,3.90872574,-0.814791,
-4.13663387,16.06022072,4.08067322,-0.813495,
-5.21358585,16.12665367,4.30391502,-0.80387,
-6.17777061,16.21874046,4.57870674,-0.816202,
-7.30388403,16.31999588,4.94075489,-0.794084,
-8.30764008,16.45327377,5.38717842,-0.818828,
-9.53058434,16.63252258,5.96794796,-0.787534,
-10.63477516,16.82231903,6.54325294,-0.730103,
-11.82647133,16.99030685,7.41262436,-0.786079,
-13.06990433,17.15347481,8.2950983,-0.723416,
-14.19366074,17.19707108,9.1155014,-0.661611,
-15.30174923,17.12317467,10.02589989,-0.650271,
-16.34862709,16.9523201,10.83987522,-0.603758,
-17.29075241,16.78215981,11.64422035,-0.575879,
-18.20071411,16.57372093,12.44136524,-0.55031,
-19.14936638,16.36976624,13.20326996,-0.472135,
-20.03190422,16.19682693,13.8683157,-0.337911,
-20.97903633,16.04580307,14.53363609,-0.144603,
-21.91516495,15.91462994,15.0812397,0.139362,
-22.86107445,15.82219315,15.59531212,0.475427,
-23.80412674,15.7427063,16.06247902,0.85361,
-24.75058174,15.68417454,16.50210953,1.268512,
-25.70719719,15.63502789,16.91233826,1.713481,
-26.66508102,15.59285259,17.29000854,2.197079,
-27.62636375,15.56162548,17.64550972,2.706468,
-28.59425735,15.5376749,17.97842789,3.235724,
-29.56478119,15.5198555,18.28902817,3.797975,
-30.53845215,15.50697899,18.58092117,4.4891,
-31.5150547,15.49606609,18.85511208,5.258326,
-32.4953804,15.48813057,19.11295891,6.075208,
-33.47655106,15.48406601,19.35551262,6.920555,
-34.4608345,15.48095703,19.58452606,7.789544,
-35.44678497,15.48039818,19.80038452,8.688631,
-36.43483353,15.48117447,20.00379181,9.599473,
-37.42522812,15.48334026,20.19480324,10.517111,
-38.41791534,15.48645115,20.37335396,11.439715,
-39.41600418,15.49081516,20.5377903,12.369101,
-40.41984558,15.49451542,20.68377686,13.306122,
-41.43946075,15.49857903,20.80139732,14.266417,
-0.11103946,14.84555721,3.09983444,-0.822609,
-1.11359704,14.84698963,3.11874771,-0.821419,
-2.1320312,14.87281036,3.19929314,-0.82933,
-3.17953491,14.91954994,3.31267738,-0.817114,
-4.18215132,14.95802212,3.45242882,-0.804924,
-5.20169878,15.04195404,3.66602707,-0.805305,
-6.2258172,15.09739113,3.9050808,-0.802491,
-7.25060034,15.18147755,4.2232132,-0.802674,
-8.32440186,15.23686886,4.58625603,-0.816873,
-9.36380863,15.37717628,5.05685425,-0.812751,
-10.54735565,15.58189678,5.67880726,-0.79853,
-11.66500378,15.72288418,6.3328743,-0.79985,
-12.90288639,15.91520977,7.21141434,-0.798851,
-14.15272045,16.07504082,8.11934757,-0.717625,
-15.31626892,16.08876038,9.04428196,-0.682153,
-16.43541145,16.05613708,10.02773762,-0.641855,
-17.42078972,15.90930176,10.87576008,-0.587721,
-18.35012817,15.69613743,11.74526405,-0.587406,
-19.28289413,15.47972298,12.58968544,-0.534876,
-20.14459038,15.29797363,13.33529472,-0.456967,
-21.07468987,15.10381889,14.07187653,-0.306421,
-21.9846096,14.98634911,14.70034218,-0.063913,
-22.9288044,14.86629772,15.26733589,0.24672,
-23.86074638,14.7782917,15.76991463,0.60446,
-24.79524803,14.70339203,16.24381256,0.999315,
-25.74807549,14.64673519,16.68634033,1.444301,
-26.69818878,14.60664368,17.09031868,1.91609,
-27.65436554,14.57168388,17.46809769,2.409813,
-28.61714745,14.54532909,17.82138252,2.943679,
-29.58260155,14.5255661,18.15103722,3.498403,
-30.55289078,14.50964642,18.45990753,4.13295,
-31.52741051,14.49868679,18.74931145,4.870001,
-32.50363922,14.49107933,19.02056313,5.673972,
-33.48359299,14.48496914,19.27599907,6.531899,
-34.46504211,14.48240948,19.51644325,7.4132,
-35.44929504,14.48089504,19.7432766,8.31013,
-36.43537521,14.48148537,19.9569664,9.217509,
-37.42459106,14.48379517,20.15791321,10.133498,
-38.41601944,14.48667717,20.34546661,11.062313,
-39.41225052,14.49049282,20.51873779,12.008129,
-40.41666031,14.49501991,20.673069,12.965346,
-41.43517685,14.49863148,20.79762077,13.934692,
0.88088471,13.71694088,2.5970726,-0.835787,
-0.17885351,13.74265099,2.5982399,-0.836656,
-1.18408656,13.79568386,2.6223259,-0.814961,
-2.18245935,13.83032036,2.69717216,-0.817275,
-3.20842695,13.87627697,2.8092804,-0.817167,
-4.218431,13.93057346,2.95259666,-0.814446,
-5.2225647,13.95641899,3.13180923,-0.829667,
-6.26134777,14.0015955,3.35502625,-0.815838,
-7.26801777,14.04545403,3.61994743,-0.815372,
-8.3144989,14.15237713,3.96448708,-0.807263,
-9.362216,14.21621323,4.33875847,-0.791324,
-10.41996956,14.3075304,4.8385067,-0.819138,
-11.61263943,14.49602222,5.47805023,-0.807118,
-12.71922016,14.65992451,6.1957798,-0.804856,
-14.02061176,14.88184357,7.14396858,-0.777018,
-15.23922062,15.03834534,8.10420704,-0.714358,
-16.45059013,15.02448559,9.14763069,-0.692085,
-17.49832916,14.999403,10.11737823,-0.633662,
-18.51642036,14.79184914,11.05806828,-0.593646,
-19.40265465,14.59798145,11.93084145,-0.573168,
-20.30859947,14.37602329,12.80011177,-0.51668,
-21.17229462,14.19278431,13.56363487,-0.409854,
-22.06429482,14.03134918,14.29757118,-0.240979,
-22.99635506,13.91335678,14.93391991,0.042771,
-23.91924667,13.8129921,15.48156452,0.382465,
-24.85345459,13.72887516,15.98922634,0.769288,
-25.78909492,13.66443157,16.45601082,1.189224,
-26.7325592,13.61787224,16.89039421,1.65416,
-27.68539238,13.5815773,17.29334259,2.154328,
-28.64038467,13.55277538,17.66622353,2.674838,
-29.6027298,13.53040123,18.01478386,3.216215,
-30.56940651,13.51409435,18.34000587,3.808555,
-31.53946877,13.50152206,18.64400101,4.527021,
-32.51379013,13.492342,18.92928505,5.324573,
-33.49055862,13.48717403,19.19707489,6.168724,
-34.47029114,13.48319626,19.44911957,7.04146,
-35.45213699,13.48192501,19.68666077,7.935343,
-36.43699646,13.48220444,19.91050529,8.855957,
-37.42352676,13.48377895,20.12098122,9.789333,
-38.4147377,13.48716927,20.31798363,10.731395,
-39.40922928,13.490695,20.49949265,11.678612,
-40.41225433,13.49477577,20.66222763,12.634783,
-41.43180847,13.49891281,20.79425049,13.605752,
0.80360609,12.7087431,2.18715477,-0.828425,
-0.21303967,12.73670387,2.18309021,-0.822498,
-1.22358751,12.76566029,2.21985054,-0.826273,
-2.23509765,12.78827,2.2846241,-0.830854,
-3.24909306,12.81548882,2.37547302,-0.8278,
-4.25314808,12.84678078,2.50039101,-0.830488,
-5.27323818,12.88876343,2.67127419,-0.825634,
-6.28682375,12.93966675,2.88295174,-0.821657,
-7.31137753,12.9951086,3.12751961,-0.820336,
-8.32218075,13.03026199,3.41716766,-0.80958,
-9.366395,13.12393761,3.79511642,-0.821226,
-10.43868732,13.21037769,4.20747185,-0.783034,
-11.45708752,13.32526207,4.75177002,-0.822905,
-12.66806984,13.49616814,5.44225407,-0.818807,
-13.82337093,13.6592865,6.19772911,-0.791304,
-15.12541199,13.84848881,7.20601463,-0.775838,
-16.35829353,14.01283455,8.25523186,-0.719906,
-17.54512215,13.94840717,9.34613037,-0.706361,
-18.62854767,13.87249088,10.35345078,-0.618833,
-19.52559853,13.69476986,11.28691006,-0.588022,
-20.4522686,13.47894382,12.25274658,-0.560548,
-21.29799843,13.27970505,13.07120419,-0.479092,
-22.1637516,13.09489155,13.87324715,-0.35624,
-23.07583237,12.93998432,14.57844162,-0.127006,
-23.9809494,12.83986282,15.18522835,0.180945,
-24.91134262,12.7513113,15.73873138,0.555045,
-25.83506775,12.68344212,16.23013306,0.971812,
-26.77014732,12.63026428,16.69355392,1.420162,
-27.71597672,12.59020901,17.12102318,1.900701,
-28.6668663,12.55858517,17.5140152,2.422667,
-29.62422752,12.53514385,17.8803215,2.971515,
-30.58624077,12.51678276,18.22136879,3.540799,
-31.55316353,12.50426197,18.54062653,4.211142,
-32.52413559,12.49518394,18.83949852,4.98085,
-33.4986496,12.48837662,19.11967659,5.820652,
-34.47567368,12.48480988,19.38297081,6.704567,
-35.45569229,12.48289585,19.63113022,7.610845,
-36.43832016,12.48301888,19.86493111,8.531888,
-37.42401505,12.48449135,20.08462906,9.463455,
-38.41246414,12.48707485,20.29043961,10.402356,
-39.40691376,12.49103165,20.48079109,11.350705,
-40.40836334,12.49494553,20.65126991,12.313574,
-41.42795563,12.49845505,20.79067802,13.299786,
0.76757067,11.64514351,1.8316288,-0.838111,
-0.25327826,11.68003559,1.83396721,-0.836121,
-1.26883733,11.70611668,1.8565464,-0.831557,
-2.27924967,11.73894978,1.91115761,-0.827701,
-3.27913022,11.77923965,2.00558281,-0.83696,
-4.3042531,11.81460571,2.1267395,-0.830183,
-5.30546904,11.8440876,2.27377892,-0.821475,
-6.31634188,11.88359451,2.4730587,-0.833607,
-7.33714676,11.93276501,2.71170807,-0.829368,
-8.36804295,11.99526596,2.98446274,-0.813062,
-9.37631607,12.02930164,3.29924774,-0.807132,
-10.40847111,12.12367916,3.72000885,-0.822154,
-11.48447704,12.18804741,4.17720032,-0.807373,
-12.55123425,12.29260635,4.73405838,-0.813567,
-13.76573372,12.47507477,5.47948265,-0.802349,
-14.89920235,12.66531372,6.33538437,-0.819609,
-16.26077461,12.82269955,7.42392731,-0.784803,
-17.51282501,12.92254066,8.53917027,-0.733159,
-18.66829872,12.88391495,9.67066002,-0.679811,
-19.65900993,12.74320126,10.65159607,-0.61779,
-20.58809662,12.54289722,11.67141819,-0.573332,
-21.41775513,12.35811806,12.57937241,-0.532911,
-22.28931808,12.15014839,13.46137619,-0.446555,
-23.15266418,11.99905014,14.2157793,-0.254173,
-24.05085754,11.87254906,14.89802933,0.014437,
-24.97195816,11.7676115,15.48161316,0.369307,
-25.88129425,11.69830894,16.00840378,0.762666,
-26.81180191,11.63992023,16.50201416,1.206174,
-27.74853706,11.59590816,16.95044899,1.688687,
-28.69374657,11.56579304,17.36577415,2.199893,
-29.64768982,11.53958511,17.74937248,2.73601,
-30.6033287,11.52152824,18.10580826,3.294688,
-31.56783104,11.50707531,18.44054794,3.930951,
-32.53541946,11.4968462,18.75196457,4.688861,
-33.50666428,11.49013615,19.04405022,5.519064,
-34.48148346,11.48612213,19.31881905,6.392229,
-35.45960236,11.48417854,19.57728577,7.292076,
-36.44026566,11.48355865,19.82042694,8.209554,
-37.42432785,11.48526478,20.04930878,9.148375,
-38.41154099,11.48754787,20.26343727,10.10261,
-39.40350342,11.49114418,20.46219063,11.065326,
-40.4054451,11.49495506,20.64071655,12.038895,
-41.42403412,11.49858665,20.78684616,13.027769,
0.73478818,10.61536789,1.51148415,-0.819175,
-0.28466341,10.63113117,1.50929832,-0.817986,
-1.29318404,10.66855621,1.53297424,-0.815322,
-2.29711056,10.70755386,1.59813309,-0.82995,
-3.31430531,10.73326302,1.68759346,-0.832349,
-4.32476187,10.76680946,1.80285263,-0.830641,
-5.34255123,10.80939007,1.9470253,-0.831806,
-6.34914541,10.8342514,2.11937714,-0.828869,
-7.36763716,10.87230492,2.34163666,-0.827067,
-8.38339806,10.92791367,2.60432434,-0.829704,
-9.40461159,11.00804424,2.91318703,-0.809763,
-10.42316723,11.03891563,3.27695274,-0.822499,
-11.47137547,11.13850689,3.72027397,-0.819153,
-12.57439232,11.21694565,4.2154789,-0.780923,
-13.61656094,11.34500313,4.83525276,-0.804245,
-14.85786724,11.47127342,5.64499664,-0.802331,
-16.08289719,11.64204407,6.59050274,-0.797258,
-17.41484261,11.79362392,7.75635052,-0.763951,
-18.65437317,11.84697723,8.9469223,-0.71708,
-19.74373245,11.79627419,10.09061527,-0.650766,
-20.69812775,11.6128664,11.10750675,-0.599644,
-21.56189156,11.3986721,12.10414696,-0.565661,
-22.42093468,11.18259048,13.0250597,-0.489609,
-23.23451042,11.03134823,13.84303093,-0.362484,
-24.13577271,10.88733101,14.60518074,-0.123788,
-25.02253723,10.7996664,15.22957897,0.206452,
-25.93605804,10.71258926,15.80036926,0.590133,
-26.85421181,10.64825916,16.31269455,1.017674,
-27.78326035,10.60465431,16.78603363,1.481413,
-28.72243309,10.56867981,17.22110367,1.991422,
-29.66853905,10.54504395,17.6232338,2.530491,
-30.62275505,10.52527523,17.99674416,3.092291,
-31.58286476,10.50898361,18.34337234,3.68982,
-32.54652023,10.49898243,18.66730499,4.41085,
-33.51495743,10.49239826,18.97171593,5.221415,
-34.48813248,10.48746014,19.2572403,6.096728,
-35.46364594,10.48488903,19.52508926,7.006421,
-36.44262314,10.48487854,19.77757454,7.936443,
-37.42449951,10.4855957,20.01499367,8.879343,
-38.41072083,10.48834801,20.23756027,9.832939,
-39.40116501,10.49117374,20.44398308,10.794028,
-40.40201569,10.49516773,20.63027763,11.766948,
-41.42023849,10.49873161,20.78335381,12.756333,
0.70671499,9.58400154,1.2421627,-0.798844,
-0.30121544,9.61412907,1.24070168,-0.794866,
-1.31325936,9.63680172,1.26586342,-0.794064,
-2.31278706,9.65987492,1.32347679,-0.802509,
-3.33700132,9.69049263,1.40685844,-0.808615,
-4.33808708,9.72608662,1.51623344,-0.821782,
-5.36236811,9.75955105,1.66171837,-0.836124,
-6.37649965,9.80809116,1.83203888,-0.829671,
-7.40106392,9.84433842,2.03088188,-0.834004,
-8.39407825,9.88672733,2.27430153,-0.823902,
-9.42841148,9.93451595,2.5782299,-0.839657,
-10.45344162,9.99964619,2.91009903,-0.814837,
-11.48558331,10.0394125,3.30450058,-0.81031,
-12.50192165,10.17137146,3.79768181,-0.824056,
-13.63981152,10.22289944,4.38456154,-0.81943,
-14.76689625,10.35591793,5.04494953,-0.781289,
-15.96602917,10.53133869,5.914217,-0.777169,
-17.30298615,10.66650772,7.03088379,-0.777957,
-18.57352448,10.7808466,8.20765305,-0.733808,
-19.79982376,10.73250008,9.48869896,-0.712338,
-20.79223633,10.62845898,10.57941818,-0.630744,
-21.70290565,10.43304443,11.63636303,-0.583812,
-22.53619003,10.24899483,12.60894012,-0.524253,
-23.35511017,10.05881786,13.4865284,-0.415448,
-24.1989975,9.92009068,14.29462147,-0.231534,
-25.0821209,9.81128216,14.99668312,0.053665,
-25.99270248,9.72320843,15.59951019,0.429939,
-26.89826012,9.6565876,16.12957191,0.854579,
-27.81707573,9.60828686,16.62607956,1.314924,
-28.75181389,9.57413673,17.08361053,1.812626,
-29.68976784,9.54725075,17.50262642,2.335315,
-30.64303589,9.52617073,17.89213562,2.889193,
-31.59639931,9.51297092,18.25084686,3.476236,
-32.55796051,9.50215435,18.58833694,4.173447,
-33.52446747,9.49350166,18.90326691,4.97844,
-34.49451447,9.48864555,19.19809341,5.844524,
-35.46804428,9.48652077,19.47545052,6.746873,
-36.44496155,9.48538876,19.73653221,7.671708,
-37.42520142,9.48670578,19.98230362,8.611794,
-38.40979767,9.48865891,20.21273994,9.566852,
-39.39930725,9.49180698,20.4265461,10.536764,
-40.39818573,9.49515152,20.62002373,11.521629,
-41.41713333,9.49873066,20.7801342,12.526254,
0.68972093,8.57947922,1.05660629,-0.787388,
-0.32056421,8.60412884,1.06126595,-0.79113,
-1.33940411,8.62539005,1.07400322,-0.783513,
-2.33755064,8.64242077,1.10673141,-0.778041,
-3.34460592,8.66780949,1.17767715,-0.791844,
-4.35430717,8.69643593,1.28123474,-0.809021,
-5.37760687,8.72632885,1.40927887,-0.811653,
-6.3831172,8.75487709,1.57536888,-0.835826,
-7.42932749,8.80391502,1.77165222,-0.825682,
-8.41076469,8.84571362,1.99805832,-0.836632,
-9.45641613,8.89204693,2.28480911,-0.830925,
-10.4651432,8.95033836,2.60254288,-0.83063,
-11.51065159,9.02941608,2.98022842,-0.806053,
-12.52134991,9.03603268,3.40996361,-0.813422,
-13.64019012,9.13667393,3.96105576,-0.802981,
-14.6680975,9.27264595,4.57862282,-0.815665,
-15.88422012,9.3967638,5.41258717,-0.824753,
-17.20783043,9.5468483,6.36246014,-0.760179,
-18.47467613,9.65964699,7.55214214,-0.76619,
-19.80231667,9.70270634,8.87164307,-0.705435,
-20.8819313,9.62214565,10.06121635,-0.645537,
-21.81833649,9.46245098,11.19798183,-0.59789,
-22.65251541,9.2773447,12.20849323,-0.546017,
-23.47291565,9.09925365,13.15512276,-0.463888,
-24.27548027,8.93838024,13.99459076,-0.313354,
-25.15088654,8.81668949,14.7681303,-0.057401,
-26.04473877,8.72771931,15.39894485,0.300161,
-26.93946075,8.66867065,15.96120644,0.703416,
-27.8552227,8.61617756,16.48046494,1.151977,
-28.77702904,8.57782269,16.95298004,1.645955,
-29.71603966,8.54945469,17.39060974,2.174745,
-30.65912437,8.52989674,17.79176712,2.728196,
-31.61114883,8.51509857,18.16615677,3.304216,
-32.56979752,8.50274944,18.51427269,3.959775,
-33.53409958,8.49509716,18.83865356,4.741728,
-34.50066376,8.49053669,19.14248085,5.596161,
-35.47270203,8.48734283,19.42883301,6.502768,
-36.44740295,8.48696613,19.69790077,7.436686,
-37.42612457,8.48719501,19.95141983,8.387659,
-38.40877151,8.48955631,20.18925285,9.350689,
-39.39774323,8.49213409,20.41015625,10.32441,
-40.39510345,8.49521637,20.61009979,11.308522,
-41.41341019,8.49852657,20.77672577,12.312896,
-0.34776062,7.57623672,0.95340538,-0.818536,
-1.35366762,7.60713673,0.96298027,-0.813672,
-2.36509323,7.6379261,0.98371124,-0.807112,
-3.36695457,7.6549449,1.02197456,-0.793851,
-4.36855936,7.67506361,1.09954834,-0.791413,
-5.39548349,7.70463133,1.20973015,-0.803895,
-6.40432692,7.72882605,1.34911919,-0.802571,
-7.41933298,7.76748037,1.54279709,-0.825736,
-8.4541502,7.80829382,1.7699604,-0.827605,
-9.46763706,7.84888506,2.02783585,-0.838211,
-10.49572372,7.89467001,2.33501434,-0.821868,
-11.50969696,7.95457935,2.69776917,-0.821705,
-12.56390572,8.05381203,3.13589096,-0.824981,
-13.61384583,8.11515713,3.61775017,-0.795553,
-14.65148735,8.17872143,4.20656395,-0.815999,
-15.84295654,8.26619625,4.95780373,-0.810776,
-17.05679512,8.46079254,5.84894848,-0.78302,
-18.445858,8.54807472,6.97528362,-0.737746,
-19.72628975,8.59701729,8.24375916,-0.724498,
-20.91266251,8.59248543,9.59113026,-0.701209,
-21.92362213,8.4590826,10.77474403,-0.622227,
-22.75329399,8.29342747,11.83450508,-0.56697,
-23.57570648,8.12255764,12.85527325,-0.498312,
-24.36911011,7.95877361,13.73287868,-0.373692,
-25.22012901,7.81965065,14.53628254,-0.152063,
-26.08728027,7.74046898,15.21040726,0.181146,
-26.98448181,7.66925144,15.81131554,0.579511,
-27.88868713,7.61631346,16.3441124,1.02385,
-28.80649376,7.58039618,16.83467102,1.505555,
-29.73743057,7.55241299,17.28559494,2.020916,
-30.67690086,7.53225088,17.70162201,2.564793,
-31.62553406,7.51566172,18.08741951,3.143861,
-32.58241272,7.50415516,18.4450779,3.779994,
-33.54173279,7.49674273,18.77821159,4.548917,
-34.50747681,7.49196386,19.09173965,5.401901,
-35.47682953,7.48929882,19.385746,6.302206,
-36.45035553,7.48786163,19.66241264,7.231626,
-37.4268837,7.48856354,19.92264366,8.179033,
-38.40839386,7.4897356,20.1673336,9.140093,
-39.39554596,7.49296665,20.39481354,10.11218,
-40.39284134,7.49550819,20.60095024,11.098967,
-41.4098053,7.4984498,20.77321434,12.108182,
-0.37478065,6.57995939,0.92324448,-0.879354,
-1.37987292,6.59091902,0.9209938,-0.871926,
-2.38700438,6.61042976,0.92727661,-0.848476,
-3.39145613,6.64235449,0.94462585,-0.822264,
-4.39433241,6.66575003,0.98855591,-0.812759,
-5.40901899,6.68618393,1.06517601,-0.796961,
-6.42749643,6.71629238,1.17551041,-0.788292,
-7.42396164,6.73886776,1.34962273,-0.805148,
-8.47973537,6.77593994,1.56846428,-0.824043,
-9.46983719,6.82130575,1.81928825,-0.826426,
-10.5308876,6.88473988,2.12986946,-0.8311,
-11.52008247,6.92179918,2.46012688,-0.826234,
-12.58914089,6.96029425,2.87389755,-0.816249,
-13.58200645,7.06170893,3.33787346,-0.813177,
-14.69594383,7.13571262,3.92812729,-0.820982,
-15.8372364,7.19781685,4.55866051,-0.773755,
-16.92247772,7.30865955,5.37864971,-0.810849,
-18.36822891,7.48491716,6.56025124,-0.790122,
-19.62685013,7.56293201,7.74199581,-0.75591,
-20.95929718,7.52068138,9.13453865,-0.692266,
-21.98817062,7.44544506,10.34425354,-0.615845,
-22.85731125,7.2945981,11.53943443,-0.607865,
-23.66988182,7.09470749,12.54708958,-0.529688,
-24.46577454,6.95337486,13.49727345,-0.414931,
-25.27595901,6.83355474,14.31580544,-0.21379,
-26.13598633,6.74079084,15.04753304,0.080214,
-27.02654266,6.66709185,15.67000103,0.461393,
-27.92261505,6.61682081,16.21882439,0.90211,
-28.83231735,6.57935429,16.72496796,1.381927,
-29.75804901,6.55343676,17.19165421,1.89799,
-30.69369316,6.53223038,17.61990738,2.443464,
-31.64140701,6.51610708,18.01551819,3.017138,
-32.59197998,6.50569534,18.38119888,3.626516,
-33.55008316,6.4989562,18.72451019,4.370764,
-34.51375198,6.49320889,19.04567528,5.209668,
-35.48101425,6.49023104,19.34666634,6.104801,
-36.45255661,6.48933125,19.63000107,7.037437,
-37.42834091,6.48939323,19.89665985,7.993013,
-38.40761566,6.49104834,20.14708138,8.961927,
-39.39387512,6.4929471,20.3807869,9.943331,
-40.39033508,6.49606371,20.59265709,10.93769,
-41.40662384,6.49884224,20.77025223,11.951604,
-0.39890492,5.5538764,0.95083046,-0.941129,
-1.40838814,5.58695889,0.94036102,-0.924289,
-2.41358638,5.60700941,0.92560577,-0.89811,
-3.41406488,5.62334442,0.92320633,-0.879737,
-4.42550182,5.64417887,0.93358421,-0.840194,
-5.42748451,5.67122793,0.97226143,-0.810169,
-6.44075155,5.70512819,1.06099319,-0.791544,
-7.45374918,5.72454977,1.20072365,-0.795955,
-8.47575474,5.75775194,1.40293121,-0.805424,
-9.50052071,5.78746748,1.65019989,-0.827833,
-10.52996731,5.82278347,1.9433136,-0.837249,
-11.56144619,5.89111996,2.28056145,-0.82725,
-12.58250809,5.96936893,2.6639061,-0.821111,
-13.61968231,6.00994158,3.11890602,-0.822357,
-14.70090199,6.04532003,3.65169334,-0.804698,
-15.76287079,6.21837473,4.29990768,-0.803673,
-16.94818687,6.23676682,5.09650135,-0.808469,
-18.22595215,6.31074762,6.07844067,-0.796082,
-19.5983181,6.43508911,7.3203516,-0.779467,
-20.94233894,6.47200871,8.69207954,-0.697866,
-22.01008034,6.43849325,10.01789665,-0.668847,
-22.98709488,6.2353611,11.25782585,-0.598951,
-23.76431274,6.10614681,12.27628613,-0.532842,
-24.55047798,5.94586515,13.26635647,-0.450778,
-25.32661247,5.83562946,14.12337589,-0.280495,
-26.19202995,5.73389721,14.90422821,0.005685,
-27.05806351,5.66643572,15.53617382,0.377328,
-27.95521736,5.61893463,16.11332512,0.807377,
-28.85707092,5.57971859,16.62903595,1.276102,
-29.77728462,5.55277014,17.10878563,1.781239,
-30.7121315,5.53132629,17.54719543,2.323548,
-31.65295601,5.51701975,17.94992638,2.8977,
-32.60174179,5.50765276,18.32598114,3.499361,
-33.55785751,5.4997201,18.67711449,4.229236,
-34.51918793,5.49465418,19.00464439,5.065395,
-35.48508072,5.49197006,19.3120594,5.960961,
-36.45496368,5.49048996,19.60124588,6.891295,
-37.42906952,5.4908247,19.87341881,7.843837,
-38.40761566,5.49174261,20.12929535,8.811308,
-39.39219284,5.49383211,20.36800385,9.79096,
-40.38766479,5.49626923,20.58528137,10.78444,
-41.40421295,5.49868441,20.76781464,11.798895,
-0.42212647,4.55164528,0.99512291,-0.995123,
-1.42711365,4.56465769,0.98753548,-0.987535,
-2.44100142,4.58743382,0.96423912,-0.964239,
-3.44185352,4.61084318,0.93610954,-0.920203,
-4.44666052,4.63885832,0.92266655,-0.884271,
-5.45120049,4.66743183,0.93375015,-0.840042,
-6.45933867,4.6837635,0.9887886,-0.813742,
-7.48634672,4.70917559,1.09072304,-0.780852,
-8.47186089,4.72985411,1.26556587,-0.80016,
-9.53018951,4.77238369,1.51435089,-0.817445,
-10.52867508,4.81569862,1.7916317,-0.827562,
-11.59523582,4.85592747,2.13129997,-0.835598,
-12.6006422,4.88268661,2.48502159,-0.823634,
-13.6345253,4.96769476,2.93983269,-0.819744,
-14.72796822,5.05518961,3.45642471,-0.790409,
-15.733284,5.04076433,4.03163719,-0.807981,
-16.95165062,5.19263554,4.87132263,-0.826226,
-18.12602425,5.33287859,5.7560339,-0.805839,
-19.60987473,5.36845875,6.98830032,-0.745341,
-20.85717773,5.41144037,8.26886463,-0.727225,
-22.11673164,5.28693295,9.75564671,-0.682619,
-23.00868034,5.23605251,10.93437386,-0.619058,
-23.84776306,5.10386753,12.110569,-0.568612,
-24.60436821,4.96292496,13.06865597,-0.472478,
-25.40481567,4.8206315,13.98580074,-0.318454,
-26.22037125,4.72575378,14.75270176,-0.06411,
-27.09943581,4.6642642,15.43787003,0.299066,
-27.97823143,4.60849094,16.01504898,0.723561,
-28.88080597,4.57824612,16.550457,1.19337,
-29.79669189,4.54851627,17.03582764,1.700895,
-30.72600174,4.5312891,17.48293495,2.241529,
-31.6640625,4.51866674,17.89536858,2.808443,
-32.6103363,4.50851011,18.27904892,3.399006,
-33.56497574,4.50050879,18.63615608,4.106782,
