//X,Y,Z,C2M_signed_distances
-30.61512756,-11.49325752,18.09597969,3.301444
-31.57481766,-11.48894501,18.42305756,3.938555
-32.53971863,-11.48583031,18.73134422,4.694845
-33.5090065,-11.48348808,19.02183914,5.522999
-34.48176956,-11.48305798,19.29627991,6.393946
-35.45722961,-11.48351097,19.55607986,7.290879
-36.43661118,-11.48496437,19.80239868,8.206935
-37.41814423,-11.48685074,20.03532219,9.142818
-38.40556717,-11.48984051,20.25449371,10.097244
-39.39694977,-11.49283886,20.45727158,11.059269
-40.40007019,-11.49657822,20.63956833,12.034099
-41.41827393,-11.49951077,20.78872871,13.022592
-0.84940022,-12.6443758,2.13819695,-0.804817
-1.89696217,-12.59405994,2.17074966,-0.811958
-2.89269066,-12.59455681,2.23300171,-0.803131
-3.90984035,-12.56476116,2.33051682,-0.809645
-4.95749378,-12.55438423,2.46847343,-0.813952
-5.94487,-12.5299511,2.63077354,-0.813879
-7.00751781,-12.50951862,2.84933472,-0.811752
-8.02632332,-12.49744701,3.08307076,-0.805102
-9.05584335,-12.43104839,3.3641243,-0.802946
-10.09934235,-12.39753819,3.7094326,-0.810707
-11.14563274,-12.36667919,4.09508324,-0.791326
-12.20782948,-12.41244411,4.59146309,-0.792331
-13.22891712,-12.41248703,5.17616463,-0.826762
-14.38955212,-12.44249916,5.89363003,-0.828232
-15.51344681,-12.49023056,6.68409061,-0.817437
-16.65004349,-12.5827446,7.70394611,-0.853107
-17.86009979,-12.74156666,8.81589699,-0.758893
-18.92696381,-12.81076527,9.88891602,-0.659573
-19.79647446,-12.81827641,10.96793175,-0.654413
-20.69709015,-12.74796867,12.05523205,-0.608413
-21.51268578,-12.6979084,12.96444225,-0.520128
-22.32962799,-12.65439415,13.83464527,-0.404053
-23.19207764,-12.61956596,14.58268738,-0.176904
-24.0649929,-12.59125137,15.22112846,0.129327
-24.97102547,-12.56240463,15.77773857,0.507107
-25.87540054,-12.54793453,16.26779175,0.932318
-26.80467987,-12.52758121,16.72027969,1.394222
-27.74197006,-12.51707935,17.13237953,1.889567
-28.68500519,-12.50774765,17.51422882,2.420266
-29.63858795,-12.49902725,17.87251472,2.975178
-30.59703636,-12.49286556,18.20639992,3.54905
-31.56083679,-12.48747158,18.52017021,4.218896
-32.52831268,-12.48443031,18.81577873,4.986187
-33.50087357,-12.48254585,19.09511566,5.824616
-34.47568893,-12.48220348,19.35875511,6.706007
-35.45393372,-12.48273849,19.60873413,7.610252
-36.43418121,-12.48391438,19.84563637,8.528596
-37.41827393,-12.48648834,20.07008362,9.458561
-38.40620804,-12.48899841,20.28087616,10.396808
-39.40036392,-12.49280739,20.47595978,11.344847
-40.40346909,-12.49628639,20.65015984,12.309228
-41.42224884,-12.49959946,20.79239655,13.29471
-0.91217756,-13.6930809,2.58192635,-0.831005
-1.93806589,-13.70121384,2.60912514,-0.806649
-2.9393568,-13.64264774,2.6568203,-0.799735
-3.95628905,-13.60883808,2.77393913,-0.814162
-5.02023983,-13.57865906,2.89642715,-0.79639
-5.99789667,-13.56965256,3.07741165,-0.80748
-7.07417822,-13.53732777,3.29003525,-0.789414
-8.05052376,-13.4904089,3.53021431,-0.787254
-9.15183449,-13.48730087,3.88708878,-0.804728
-10.14577389,-13.49332905,4.23394585,-0.779334
-11.21090508,-13.46617699,4.70399094,-0.817358
-12.27610302,-13.4054842,5.20405006,-0.828152
-13.40991974,-13.48258781,5.85256958,-0.800064
-14.47632313,-13.53581715,6.6068697,-0.833381
-15.65816402,-13.6348877,7.58430576,-0.852168
-16.82162094,-13.8394804,8.5894537,-0.745404
-17.86936188,-13.855196,9.61993599,-0.711024
-18.84578896,-13.85983944,10.68695354,-0.662029
-19.71459007,-13.85200787,11.70032978,-0.599858
-20.5519886,-13.80085087,12.66259289,-0.55286
-21.37291336,-13.71415424,13.5159874,-0.466312
-22.23088455,-13.66315079,14.28501511,-0.278195
-23.10695267,-13.61198711,14.94679546,-0.015116
-24.00368118,-13.58957577,15.52185249,0.330422
-24.90857315,-13.57046223,16.02732086,0.723835
-25.83348465,-13.54996872,16.4871273,1.162015
-26.76267624,-13.53541851,16.90971565,1.636284
-27.71027184,-13.51769924,17.30186844,2.145069
-28.65971375,-13.50479507,17.66288185,2.67353
-29.61750031,-13.49827862,18.00268173,3.221956
-30.57938576,-13.49116611,18.32098579,3.817283
-31.5462265,-13.48676014,18.62124443,4.534456
-32.51878357,-13.48338604,18.90409851,5.330856
-33.49225998,-13.48210526,19.17060852,6.17186
-34.47071457,-13.48106003,19.42364311,7.043074
-35.4500618,-13.48176479,19.66306114,7.934317
-36.43277359,-13.4834528,19.89062119,8.852596
-37.41822433,-13.48569679,20.10583496,9.784771
-38.40772247,-13.48909664,20.30818176,10.725109
-39.40353775,-13.49225044,20.49489784,11.673548
-40.40679932,-13.49614334,20.66105843,12.630017
-41.42657471,-13.49901295,20.7963028,13.600966
41.50092316,41.50027084,20.84883881,28.703261
40.50080872,41.50014877,20.84882164,28.005221
39.50069809,41.49992371,20.84867096,27.319527
38.50060272,41.4996376,20.84840965,26.634156
37.5004921,41.49913406,20.84805679,25.949677
36.50035477,41.49837494,20.84757233,25.281176
35.50021744,41.4973793,20.84689713,24.634129
34.50005341,41.49612427,20.8460331,23.993207
33.49982834,41.49459457,20.8449192,23.352044
32.49967194,41.49261475,20.84352493,22.721125
31.49950218,41.49055862,20.84196472,22.1169
30.49952888,41.48842239,20.84031487,21.522912
29.49919891,41.48583984,20.83834457,20.928361
28.49939346,41.48302078,20.83625031,20.34685
27.49903297,41.48025131,20.833992,19.795525
26.49931145,41.47675323,20.83151436,19.250182
25.49900246,41.473629,20.8289814,18.705909
24.49940109,41.47031021,20.82639885,18.189318
23.49918365,41.46674347,20.82373619,17.695149
22.4992733,41.46318817,20.82093239,17.20126
21.49951172,41.46008682,20.81818199,16.724023
20.49929237,41.45591736,20.81519127,16.280558
19.49933815,41.4524765,20.81202316,15.840123
18.49893951,41.44789124,20.80845833,15.410401
17.49934196,41.44390106,20.80483246,15.021144
16.49949646,41.4395752,20.80143929,14.634907
15.49974728,41.43657684,20.79835701,14.263938
14.4997797,41.432827,20.79530907,13.932716
13.49947453,41.42908096,20.79203415,13.603232
12.49966526,41.42593002,20.78877258,13.298051
11.49935436,41.4216423,20.78518677,13.025575
10.49938488,41.41783142,20.78153229,12.754072
9.49956322,41.41434097,20.77820587,12.523584
8.49993229,41.41124344,20.77532768,12.310988
7.49936581,41.40830994,20.77247047,12.106823
6.49959326,41.40540695,20.76964188,11.950477
5.4995451,41.40248108,20.76713181,11.797272
4.49966621,41.4001236,20.76499748,11.676228
3.49977231,41.39860535,20.76356506,11.584332
2.49978995,41.39737701,20.76249886,11.498094
1.49989998,41.396595,20.76183319,11.462044
0.4998818,41.3959465,20.76148033,11.431236
41.50079727,40.50016403,20.84877396,28.005244
40.50053787,40.49988937,20.84843254,27.289143
39.50030518,40.49950027,20.84771729,26.591313
38.50007629,40.49893951,20.84663963,25.905469
37.49975204,40.49801636,20.84514046,25.219474
36.4993515,40.49669266,20.84308624,24.534673
35.49887466,40.49504089,20.84041595,23.867547
34.49827957,40.49288177,20.83702278,23.221551
33.49773407,40.49030685,20.83283234,22.579285
32.49720001,40.48776627,20.82792854,21.937102
31.49678421,40.48468018,20.82239914,21.310117
30.49620628,40.48095703,20.816185,20.709157
29.49606514,40.47758102,20.80950737,20.113898
28.4955101,40.47370529,20.80225754,19.518412
27.49559784,40.46949387,20.7945137,18.945128
26.49501991,40.46548462,20.78625679,18.397464
25.49564743,40.46132278,20.77788734,17.851508
24.49488068,40.45676804,20.76921844,17.3114
23.49521255,40.45252609,20.76011086,16.807812
22.49524117,40.44779968,20.7509079,16.31255
21.49497986,40.44317627,20.74146461,15.819049
20.49508095,40.4386673,20.73149681,15.361123
19.49487877,40.43405914,20.72120094,14.919139
18.49502563,40.42997742,20.71054649,14.478701
17.49522018,40.42607498,20.69992638,14.075055
16.49585342,40.42249298,20.68976021,13.689278
15.49559021,40.41817093,20.67971611,13.30475
14.49593544,40.41393661,20.66950798,12.962888
13.49576092,40.41021729,20.65929794,12.633028
12.49583912,40.40602112,20.64891624,12.311471
11.49567795,40.4030838,20.63861275,12.036706
10.49595928,40.40005875,20.62840652,11.765178
9.49621773,40.39665985,20.618536,11.520283
8.49647331,40.3932991,20.60935783,11.306984
7.4967885,40.39068604,20.60101318,11.097098
6.49702501,40.38846588,20.59331322,10.936024
5.49708557,40.38627625,20.58621407,10.783243
4.49759865,40.38454437,20.58020401,10.65535
3.4981308,40.38224411,20.57531738,10.562481
2.49833918,40.38068771,20.57168579,10.473623
1.4992336,40.37957001,20.56928825,10.435655
0.49960431,40.37891006,20.56812668,10.404787
41.50058746,39.50005722,20.84857559,27.319567
40.50014877,39.49965668,20.84766579,26.591336
39.49971008,39.4990654,20.8460598,25.874406
38.49914169,39.49813461,20.8436718,25.176461
37.49842834,39.49671173,20.84031487,24.489732
36.49761581,39.4948616,20.83582687,23.802659
35.49668884,39.49243927,20.83008575,23.117228
34.49573517,39.48958969,20.82296944,22.45136
33.49485016,39.48668671,20.81455994,21.806315
32.49398804,39.48321152,20.80493736,21.162976
31.49313545,39.4793396,20.79399109,20.520053
30.49266815,39.47571945,20.78206062,19.898356
29.49201775,39.4713974,20.76926613,19.300109
28.49162483,39.46696091,20.75555801,18.70357
27.49092674,39.46259308,20.74097252,18.110055
26.4912529,39.45835495,20.72598076,17.547881
25.49036026,39.45366287,20.71031189,17.000329
24.49090195,39.44927216,20.69411278,16.453789
23.49040031,39.44469833,20.6775589,15.925822
22.49038124,39.44046783,20.66038513,15.429608
21.4903698,39.43552399,20.64263916,14.933737
20.49026489,39.43164825,20.62461281,14.451937
19.49054909,39.42767334,20.60633087,14.0081
18.49080276,39.42412949,20.58800888,13.566878
17.4911499,39.42066956,20.5698185,13.140645
16.4908905,39.41665268,20.55143356,12.752643
15.49167919,39.41316223,20.53320694,12.366609
14.49100304,39.40998077,20.51475716,12.005979
13.49194145,39.40662766,20.49632454,11.676427
12.4916153,39.40425491,20.4783802,11.348264
11.49222946,39.40148163,20.46062088,11.063606
10.4920454,39.39884949,20.44320107,10.792002
9.49270439,39.39699173,20.42647362,10.5347
8.49314117,39.39510345,20.41074944,10.322066
7.49398232,39.3931694,20.39640236,10.110128
6.49393463,39.39135361,20.38312912,9.941079
5.49488592,39.38983536,20.37109375,9.788906
4.49560976,39.38846207,20.36100388,9.654121
3.49587584,39.38741302,20.35240746,9.562343
2.49757004,39.38620377,20.34580231,9.472157
1.49785399,39.38531113,20.34136581,9.432448
0.49869421,39.3843689,20.33854485,9.401247
41.50028992,38.49995041,20.84826279,26.634181
40.49959946,38.49943542,20.84654617,25.905507
39.49872971,38.49850082,20.84362602,25.176451
38.4977417,38.49714661,20.83930397,24.458012
37.49656296,38.49522018,20.83332253,23.759427
36.49522781,38.492733,20.82548332,23.071423
35.49382019,38.48968506,20.81560707,22.382905
34.4926796,38.48659134,20.80384445,21.69743
33.49146271,38.48299408,20.79029465,21.033557
32.49023438,38.47907639,20.77479744,20.388612
31.48937798,38.47524643,20.75771523,19.744725
30.48861694,38.47095871,20.73932266,19.102893
29.48781967,38.46654129,20.71955299,18.486991
28.48721886,38.46232605,20.69856834,17.890151
27.48711014,38.45810699,20.67676735,17.293629
26.486269,38.45347595,20.65392876,16.705374
25.48653793,38.44926453,20.63032532,16.152253
24.48592758,38.44500351,20.60608292,15.604865
23.48601341,38.44071579,20.58106041,15.059755
22.48580551,38.43655396,20.55537224,14.549399
21.48591423,38.43334961,20.52919769,14.05477
20.48636818,38.43000793,20.50282478,13.5608
19.48644447,38.4268074,20.47623253,13.101967
18.48664474,38.4237442,20.44950485,12.660857
17.48666,38.42049789,20.42250061,12.220996
16.48726082,38.41811371,20.39547157,11.823413
15.48698616,38.41529083,20.36819077,11.437328
14.48792648,38.41339493,20.3413372,11.060161
13.48753071,38.41201782,20.31478119,10.728848
12.48841286,38.40984726,20.2883625,10.400261
11.48824596,38.40833664,20.26252937,10.099688
10.4892931,38.40745163,20.23760605,9.830045
9.48957157,38.40653229,20.21389198,9.56393
8.49039745,38.40599823,20.19149399,9.348201
7.49078417,38.40484619,20.17035103,9.136902
6.49190569,38.40422821,20.15113258,8.958775
5.49268103,38.40422058,20.13428307,8.808167
4.49367809,38.40323639,20.11931801,8.667337
3.49506307,38.4029808,20.10722923,8.576052
2.49577045,38.40264893,20.09774399,8.485594
1.49710691,38.40207672,20.09082031,8.443949
0.4982982,38.40203094,20.08680153,8.413696
41.49981689,37.49984741,20.8478508,25.949734
40.49862671,37.49909973,20.8449688,25.219466
39.49739838,37.49782944,20.84020615,24.489817
38.49583817,37.49596024,20.83327866,23.759461
37.49405289,37.49354172,20.82386589,23.038972
36.49214554,37.4904213,20.81170273,22.339467
35.49065399,37.48724365,20.79693985,21.650624
34.48912048,37.48365402,20.77978706,20.961367
33.48754883,37.47966003,20.76010895,20.275645
32.48633194,37.47583389,20.73820877,19.614678
31.48541451,37.47167969,20.71444702,18.970164
30.4843502,37.46735764,20.68885803,18.325444
29.48373985,37.46323013,20.66162872,17.686305
28.48329544,37.45916748,20.63317871,17.077929
27.48247528,37.45478058,20.60327148,16.480551
26.48249435,37.45084381,20.57224083,15.883996
25.48204803,37.44699097,20.54030991,15.306224
24.48213768,37.44309998,20.50742722,14.758394
23.48189735,37.43964386,20.47369766,14.211583
22.48215485,37.43683243,20.43934822,13.676264
21.48244286,37.43376923,20.40459442,13.17866
20.4825592,37.43132401,20.36949539,12.684503
19.48290443,37.42891693,20.3340416,12.201227
18.48301315,37.42675018,20.29815292,11.75868
17.48343849,37.42493057,20.26197243,11.318714
16.48355484,37.4233551,20.22573853,10.89868
15.4841423,37.42257309,20.18963814,10.514871
14.48423004,37.42166519,20.15367889,10.130891
13.48501015,37.42042542,20.11798286,9.786767
12.48510361,37.42063904,20.08301735,9.460449
11.48618984,37.42085648,20.04895592,9.1453
10.48657608,37.42105865,20.01609802,8.876294
9.48749256,37.42144012,19.98464394,8.608376
8.48808575,37.42177582,19.95485306,8.383575
7.48896551,37.42277527,19.92704773,8.17506
6.49034405,37.42379761,19.90196228,7.988599
5.49132872,37.42409134,19.87952805,7.838896
4.49257517,37.42520905,19.8601532,7.695298
3.49408317,37.42559052,19.84411621,7.603512
2.4951973,37.42560577,19.8313961,7.513423
1.49691057,37.42621613,19.82250023,7.470149
0.49827865,37.42644882,19.81750107,7.440348
41.49898911,36.49970627,20.84729195,25.281203
40.4973793,36.49869537,20.84282303,24.534724
39.49547195,36.49699402,20.83563232,23.80267
38.49329758,36.49468994,20.82536316,23.071461
37.49092102,36.49167633,20.81167412,22.339507
36.4888916,36.48852539,20.79452324,21.617432
35.48701859,36.48491669,20.77424049,20.917958
34.48514938,36.4809227,20.7508831,20.227948
33.48360443,36.47719955,20.72465134,19.538253
32.4823761,36.47310257,20.69590569,18.853587
31.48124695,36.46900558,20.66487122,18.195937
30.48044968,36.46492004,20.63171387,17.551297
29.47984314,36.46106339,20.59687042,16.906899
28.47910881,36.45698929,20.56021118,16.271722
27.47892952,36.45333099,20.52196312,15.669482
26.47867393,36.44987488,20.48248863,15.072912
25.47869873,36.44645691,20.44187927,14.477561
24.4785862,36.44356155,20.40018082,13.914118
23.47892761,36.44102859,20.3576622,13.368256
22.47908401,36.43855286,20.31446075,12.822385
21.47944641,36.43683624,20.27065659,12.305608
20.47989273,36.43497467,20.22633743,11.812143
19.48001099,36.43360519,20.18142319,11.319067
18.48043251,36.43251419,20.13592148,10.860714
17.48080444,36.43198395,20.09022522,10.422172
16.48138809,36.43172836,20.04440498,9.986659
15.48192215,36.43177795,19.99872971,9.596936
14.48236847,36.43222046,19.95316505,9.21495
13.48289108,36.43363953,19.90812492,8.853033
12.4839344,36.43467712,19.86401176,8.528758
11.48449898,36.4362793,19.8211689,8.206044
10.48539066,36.43835068,19.77987099,7.932402
9.48605061,36.44030762,19.74009895,7.667285
8.48727417,36.44268036,19.70256996,7.431949
7.48864222,36.44527054,19.66814613,7.226558
6.48949909,36.44711685,19.63644218,7.031759
5.49118185,36.44942474,19.60841751,6.885521
4.49248505,36.45140457,19.5844574,6.740286
3.49380445,36.45282364,19.56423569,6.647411
2.49569988,36.45453262,19.54866982,6.560032
1.49717033,36.45514297,19.53762436,6.513848
0.4991577,36.45567322,19.53141594,6.484756
41.49797058,35.49953461,20.8465519,24.634135
40.49557877,35.49825668,20.84004211,23.867537
39.49303055,35.49608231,20.82975578,23.117244
38.49029922,35.49338531,20.81543732,22.383048
37.48754501,35.4901886,20.79682159,21.650519
36.48519897,35.4866333,20.77412987,20.917895
35.48308563,35.48280334,20.74764824,20.194306
34.4811554,35.47898865,20.71765137,19.494935
33.4796257,35.47496414,20.68450546,18.804776
32.47832489,35.47109985,20.64845657,18.114791
31.47732544,35.46704102,20.60976601,17.431508
30.47675514,35.46344757,20.56892586,16.777879
29.47603226,35.45957184,20.52585411,16.133149
28.47567558,35.45612335,20.48075294,15.48895
27.47561073,35.45309067,20.43406296,14.861033
26.47561073,35.45014954,20.38592339,14.263365
25.47576332,35.44763565,20.33639908,13.667686
24.47612381,35.44549561,20.28583336,13.07822
23.47641373,35.44366837,20.23425293,12.526748
22.47693634,35.44235992,20.18173409,11.982172
21.47742081,35.44107437,20.12844086,11.441699
20.47778893,35.44044113,20.07431221,10.942939
19.47838783,35.44000626,20.01942062,10.451365
18.478899,35.44055939,19.96412468,9.969277
17.47946358,35.44089127,19.90813446,9.530558
16.48012543,35.44187546,19.85194778,9.094727
15.48095798,35.44364548,19.79606438,8.686046
14.48159122,35.44590378,19.74053574,8.30735
13.48261929,35.44836807,19.68557549,7.93212
12.48339081,35.45148468,19.63164902,7.607009
11.48471737,35.4550705,19.57945824,7.287848
10.48543835,35.45833969,19.52875137,7.001221
9.48684502,35.46279144,19.48071671,6.741508
8.48787022,35.4672966,19.43556213,6.497026
7.48913193,35.47086334,19.39317894,6.295645
6.49060535,35.47489548,19.35474205,6.098022
5.49210262,35.47853088,19.32076454,5.953549
4.49397755,35.4817543,19.29183388,5.810991
3.49503899,35.48498154,19.26791,5.716426
2.49699235,35.48698044,19.24901962,5.631322
1.49857283,35.48873138,19.23592949,5.58401
0.49994138,35.48957062,19.22842026,5.556002
41.49662399,34.49939346,20.84561157,23.993153
40.49341965,34.49773026,20.8365612,23.221596
39.49018097,34.49529648,20.82260513,22.45151
38.48694229,34.49220657,20.80356026,21.697362
37.48400497,34.48876953,20.77951813,20.961373
36.48126984,34.48503494,20.75071907,20.228118
35.47895432,34.48114395,20.71757317,19.494899
34.47722626,34.47725677,20.68060684,18.770526
33.4756546,34.47335434,20.64009476,18.071618
32.47446442,34.46949387,20.59638596,17.381459
31.47382545,34.46603012,20.54994774,16.691899
30.47300911,34.46221542,20.50083351,16.010575
29.47272301,34.4590416,20.4492836,15.360427
28.47275543,34.45628357,20.39573479,14.716865
27.47282028,34.45363998,20.34035492,14.073536
26.4731369,34.45138168,20.28325844,13.4552
25.47373772,34.44982529,20.22490692,12.860625
24.47419357,34.44841766,20.16510963,12.266244
23.47483253,34.44727325,20.10391045,11.687887
22.47555542,34.44675064,20.04169273,11.144043
21.47633553,34.44674301,19.97836113,10.601455
20.47688484,34.44687271,19.91382027,10.0772
19.47790337,34.44801712,19.84850502,9.588268
18.47854614,34.44876862,19.78227806,9.099392
17.47939301,34.45114899,19.71552086,8.644901
16.4805584,34.45428085,19.64873314,8.213292
15.48127747,34.45716095,19.58163834,7.78648
14.48276901,34.46077728,19.51508331,7.409494
13.48367977,34.46547699,19.4496727,7.037168
12.48540592,34.47098923,19.38584137,6.700088
11.48610306,34.47596359,19.32333374,6.386555
10.48736286,34.48221207,19.2628746,6.090358
9.48953724,34.48775864,19.20545006,5.837309
8.49068928,34.49390793,19.15191078,5.588273
7.49153805,34.50047684,19.10191345,5.393363
6.49320221,34.5064888,19.0562706,5.200752
5.49525356,34.51167679,19.01594162,5.055992
4.49652147,34.51613617,18.98119545,4.920075
3.49867415,34.52042007,18.9533329,4.823996
2.49921322,34.5240593,18.9315567,4.744134
1.50138497,34.52650833,18.91607285,4.696581
41.49503326,33.49922943,20.84445572,23.351981
40.49092484,33.49728012,20.83241081,22.579455
39.48705673,33.49450302,20.81419945,21.806363
38.48339844,33.49119568,20.78993607,21.033679
37.47999954,33.48750687,20.75990105,20.275861
36.47725296,33.4836998,20.72454834,19.538354
35.47499084,33.47977448,20.6844101,18.804894
34.47315598,33.47582626,20.63998604,18.071587
33.47180176,33.47215271,20.59180832,17.346623
32.47094345,33.46856308,20.54026222,16.648761
31.47019577,33.46496582,20.48554611,15.958821
30.4699688,33.4620018,20.42798615,15.269691
29.46992302,33.45927811,20.36792183,14.592012
28.47022438,33.45685959,20.30560493,13.945516
27.47066498,33.45478439,20.24121857,13.30283
26.47166252,33.45369339,20.1753006,12.662666
25.47218895,33.45225525,20.10747528,12.054725
24.47309685,33.45144653,20.03787231,11.461533
23.4741993,33.45176697,19.96688461,10.869777
22.47521591,33.45185089,19.89424133,10.308841
21.47600937,33.45248795,19.81993484,9.767975
20.47764778,33.45419312,19.74463272,9.229425
19.47834015,33.45604706,19.6679554,8.729581
18.47985077,33.45920944,19.59033585,8.245688
17.48116684,33.46292496,19.5122261,7.769515
16.48241043,33.46696091,19.43354416,7.340789
15.48355865,33.47220993,19.3546505,6.916528
14.48593903,33.47874832,19.27681732,6.527729
13.48744678,33.48505783,19.20017052,6.163386
12.48852634,33.49146652,19.12444496,5.813269
11.49056053,33.4995079,19.05112076,5.511316
10.49244785,33.50806046,18.98114967,5.213141
9.49326515,33.51702881,18.91406822,4.969018
8.49542618,33.52476883,18.8505249,4.730201
7.49705219,33.53290558,18.79221344,4.536919
6.49865961,33.54108047,18.73919106,4.358016
5.50013113,33.54889297,18.69261551,4.216045
4.50105047,33.55572891,18.65213203,4.092949
3.50330615,33.56030273,18.61828613,3.999569
2.50506759,33.56534576,18.5939312,3.928267
1.5045023,33.56892776,18.57668686,3.883003
41.49323273,32.49911118,20.84309769,22.721251
40.48812866,32.49679565,20.82759094,21.93711
39.48362732,32.4937973,20.80464935,21.163161
38.47946548,32.49030685,20.77466965,20.388951
37.47603607,32.48650742,20.73823547,19.614947
36.47297668,32.48249817,20.69586754,18.853572
35.47083282,32.47852707,20.64824295,18.114728
34.46925735,32.47491074,20.59618187,17.381587
33.46821213,32.47125626,20.5400753,16.648715
32.46741867,32.46778107,20.4802227,15.923363
31.46713448,32.46480942,20.41703415,15.226792
30.4672718,32.46218109,20.35090828,14.538069
29.46772003,32.45985794,20.28208923,13.849894
28.46830177,32.4580307,20.21076965,13.176597
27.4696579,32.45711899,20.13746452,12.534347
26.47036552,32.45558929,20.06186295,11.89282
25.47156143,32.4552536,19.98399353,11.257098
24.47304153,32.45551682,19.90420723,10.659695
23.47440147,32.45578003,19.82247543,10.069186
22.47564888,32.45714569,19.73868179,9.483118
21.47767639,32.45973969,19.65336227,8.940266
20.47902489,32.46213913,19.56616974,8.404547
19.48088837,32.46593475,19.47764969,7.880255
18.48254585,32.4702034,19.38778877,7.400755
17.48445702,32.47547913,19.29711533,6.925431
16.4863987,32.48210526,19.20594597,6.483979
15.48889256,32.48974228,19.11497116,6.070229
14.4907074,32.49738693,19.02439499,5.667497
13.49304485,32.50642776,18.93511009,5.317004
12.49497318,32.5164299,18.84752846,4.971981
11.4973259,32.52662659,18.76223373,4.678273
10.49997807,32.53684235,18.68090248,4.398343
9.50134659,32.54788208,18.60375977,4.158905
8.50278473,32.55955124,18.53063965,3.94451
7.50492239,32.57015228,18.46264267,3.762006
6.50670767,32.58073425,18.40190315,3.607651
5.50807905,32.5899086,18.34784698,3.478711
4.50936556,32.598526,18.30153656,3.37769
3.50966382,32.60754395,18.26370811,3.298939
2.51091099,32.61213303,18.23384857,3.2419
1.51154828,32.61536026,18.21323967,3.202402
0.51158136,32.61963654,18.20290184,3.185873
41.49110413,31.49900436,20.84154892,22.117028
40.48509598,31.49641609,20.82214546,21.310212
39.47990799,31.49316597,20.79402161,20.520512
38.4754982,31.48953438,20.75795746,19.745028
37.47154617,31.48551941,20.71459007,18.970135
36.46875,31.48143768,20.66471863,18.195857
35.46691132,31.4778347,20.60948372,17.431741
34.46553421,31.47403526,20.54944229,16.691664
33.46461487,31.47060394,20.48500633,15.958829
32.46430969,31.46764946,20.4166851,15.226772
31.46460533,31.46500206,20.34488487,14.502054
30.46511459,31.46269989,20.26996803,13.807232
29.46605301,31.46106148,20.19215393,13.120022
28.46750259,31.45983505,20.111763,12.43379
27.46860886,31.4585743,20.02867317,11.766006
26.47013664,31.45846176,19.94288063,11.126668
25.47190094,31.45879173,19.85461807,10.4887
24.47373772,31.45953941,19.76381874,9.861617
23.47557068,31.46116257,19.67050934,9.273054
22.47804832,31.4637928,19.57518005,8.688515
21.48010063,31.46667099,19.4777298,8.117872
20.48234367,31.47134972,19.37820244,7.58863
19.48479843,31.47611809,19.27661324,7.062645
18.4873848,31.48270416,19.17381287,6.569794
17.49007416,31.48996162,19.06970596,6.10532
16.49291039,31.49855614,18.96512794,5.650899
15.49605751,31.50853157,18.86101341,5.251315
14.49839306,31.51926994,18.75688553,4.860861
13.50161171,31.53064156,18.6535244,4.516425
12.50500202,31.54306221,18.55297089,4.198384
11.50703812,31.5568409,18.45530701,3.91556
10.51098347,31.57056236,18.36180305,3.671755
9.51233101,31.58382797,18.272686,3.454657
8.51491356,31.59736443,18.18880272,3.280852
7.51638031,31.61239433,18.11209679,3.119884
6.51814127,31.62493706,18.04197693,2.989609
5.51904583,31.63741875,17.98017883,2.868745
4.52036667,31.6482811,17.92737198,2.778281
3.52014852,31.65702438,17.8836937,2.697513
2.51993418,31.66518974,17.84942436,2.645734
1.51963353,31.67139053,17.82619858,2.60683
0.51944387,31.67390251,17.8136692,2.589959
41.4888382,30.49888229,20.83979797,21.522843
40.48188782,30.49612999,20.81616211,20.709861
39.47592545,30.49262619,20.78246117,19.898511
38.4709816,30.48874283,20.73970222,19.103003
37.46727371,30.48458099,20.68897629,18.325532
36.46469879,30.48095703,20.63155174,17.551446
35.46289063,30.47692871,20.56827545,16.777541
34.46187592,30.47355461,20.49988556,16.010651
33.46147919,30.47049904,20.42699242,15.269646
32.46174622,30.46767998,20.35000801,14.53801
31.46239853,30.4654789,20.26939392,13.807251
30.46376801,30.46377945,20.18547821,13.083597
29.46511841,30.46227455,20.09841537,12.391107
28.46677399,30.46126556,20.0081768,11.705691
27.46856689,30.46103668,19.91479111,11.021653
26.47074318,30.46125412,19.81829262,10.36245
25.47324753,30.46227264,19.71896935,9.727091
24.4753952,30.46443367,19.61662483,9.093937
23.47842979,30.46720505,19.511343,8.482396
22.48126411,30.47075844,19.40341949,7.902738
21.48433495,30.47535515,19.29280663,7.327256
20.48747635,30.48085785,19.17975616,6.78389
19.49058533,30.48818398,19.06438255,6.269219
18.494627,30.49612045,18.94728661,5.763165
17.4985714,30.50650406,18.82971191,5.312108
16.50153923,30.51752281,18.7105217,4.875025
15.50624561,30.52918816,18.59099197,4.477715
14.5094986,30.54268456,18.47207642,4.119848
13.51414585,30.55862427,18.3550663,3.793054
12.51764107,30.57391357,18.23974419,3.52202
11.52222824,30.59021759,18.12805748,3.272477
10.52512836,30.60714912,18.02114868,3.0667
9.52833462,30.62464905,17.91961861,2.860324
8.53047943,30.64198875,17.82372665,2.696766
7.53339148,30.65731049,17.73493767,2.531791
6.53456879,30.67461205,17.6558609,2.408386
5.53474808,30.69017601,17.58613586,2.285285
4.53415632,30.70365524,17.52541733,2.200226
3.53464222,30.71497536,17.47512627,2.118678
2.53332138,30.72569847,17.43759537,2.070701
1.53113103,30.73182297,17.41015816,2.030425
0.52880126,30.73644638,17.39494324,2.016711
41.48640823,29.49889755,20.83792305,20.928622
40.47826004,29.49584198,20.80968475,20.11432
39.47154999,29.49205017,20.76982117,19.300273
38.46666336,29.48803711,20.72000313,18.487235
37.46288681,29.48423195,20.66179466,17.686349
36.46044922,29.48006058,20.59632492,16.906548
35.4591217,29.47658348,20.52474403,16.13312
34.45861816,29.4734211,20.44788933,15.360507
33.45885468,29.470438,20.36632538,14.591991
32.45957565,29.46826744,20.28051567,13.850032
31.46112442,29.46626472,20.19089699,13.120194
30.46261787,29.46471405,20.09759331,12.391073
29.4647522,29.46372795,20.00064468,11.668728
28.46687126,29.46333122,19.90003967,10.979574
27.46948242,29.4634285,19.79580307,10.297577
26.47241402,29.46476173,19.68822289,9.61817
25.47512817,29.46662712,19.57683945,8.96937
24.47896957,29.46913338,19.4621048,8.340915
23.48245239,29.47350121,19.34438324,7.716826
22.48626709,29.4787426,19.22327042,7.126588
21.49012566,29.48498535,19.09865952,6.560993
20.49430656,29.49238205,18.97066689,6.003821
19.49927902,29.50102615,18.8401947,5.498461
18.50476456,29.51210594,18.70850754,5.013292
17.50931549,29.52348518,18.57484818,4.559118
16.51491737,29.53737831,18.44033813,4.157854
15.51902294,29.55354881,18.304842,3.781645
14.52592087,29.57059669,18.17032242,3.479196
13.52992058,29.58769035,18.03644371,3.193318
12.53611755,29.60745811,17.90522766,2.945743
11.5406723,29.62835312,17.77871895,2.706026
10.545434,29.64853287,17.65576172,2.49701
9.54981804,29.66832161,17.53922462,2.299057
8.55314445,29.690979,17.43174744,2.132103
7.55310965,29.71162796,17.32958603,1.975225
6.55690098,29.73052406,17.23779488,1.850295
5.55569839,29.74715424,17.15523338,1.731776
4.55694151,29.76413536,17.08627129,1.64728
3.55589271,29.78298759,17.03537369,1.56898
2.54947257,29.79203796,16.99067879,1.519372
1.54684949,29.80173874,16.95838165,1.481315
41.48384476,28.49889755,20.83596802,20.347239
40.47423935,28.49555779,20.80262566,19.518887
39.46720886,28.49158096,20.75617599,18.703769
38.46214676,28.48774147,20.69913673,17.89034
37.45843506,28.48345566,20.63301849,17.077428
36.45651627,28.47984886,20.55928802,16.271769
35.45560837,28.47639465,20.47919846,15.488967
34.45578003,28.47328568,20.39367104,14.716762
33.45654678,28.47091866,20.30324364,13.945669
32.45830917,28.46884346,20.20851898,13.177126
31.46000862,28.4671917,20.1095314,12.433683
30.46240044,28.46607971,20.00633621,11.706041
29.46487236,28.46537781,19.89895058,10.979682
28.46800232,28.46552086,19.7874794,10.260281
27.47130203,28.46653748,19.67191887,9.576544
26.47474861,28.46804047,19.55208397,8.900229
25.4792099,28.47113228,19.42848015,8.228897
24.48320389,28.47571182,19.30075264,7.595376
23.48823166,28.48025322,19.16897964,6.979266
22.49341393,28.48665047,19.03369713,6.37155
21.49821472,28.49473381,18.89423752,5.812136
20.50419617,28.50473785,18.75096321,5.274933
19.51107216,28.51665497,18.60502625,4.763352
18.5169239,28.52890015,18.45610237,4.310966
17.52432442,28.54369164,18.30541801,3.887313
16.53093529,28.56043434,18.1533432,3.532329
15.5384264,28.57810211,17.99977112,3.212967
14.54577923,28.59840393,17.84672356,2.916621
13.55314255,28.62117767,17.69618607,2.645185
12.5591507,28.64644241,17.54825783,2.389249
11.56573772,28.66731262,17.3999691,2.161709
10.57405567,28.69595146,17.26363182,1.948619
9.57661819,28.72175789,17.13129425,1.763354
8.58151436,28.74421692,17.0041256,1.591076
7.58369875,28.77048111,16.88807869,1.446612
6.58443356,28.79393387,16.77936935,1.320704
5.58568907,28.81925201,16.68643951,1.213007
4.58768511,28.84221458,16.61116028,1.129141
3.58266973,28.85293388,16.5456028,1.048886
2.57428098,28.86919403,16.49500275,1.003647
1.57201862,28.88307381,16.46100044,0.968723
41.48116684,27.49885178,20.83380699,19.796187
40.46986008,27.49528313,20.79499054,18.945279
39.46297455,27.49146652,20.74173546,18.110709
38.45754242,27.48722267,20.67712784,17.293257
37.45432281,27.48330879,20.60284042,16.48066
36.45259857,27.4795208,20.52060699,15.669196
35.45252228,27.47629929,20.43182945,14.860931
34.45325851,27.47353745,20.33738899,14.073628
33.45509338,27.47140884,20.23808479,13.303487
32.45709991,27.46949768,20.13403893,12.534194
31.45970917,27.46820641,20.02530289,11.766608
30.4625473,27.4673481,19.91175079,11.021941
29.46591377,27.46730614,19.79335976,10.297943
28.46999741,27.46780014,19.6703968,9.576714
27.47415924,27.46968842,19.5429821,8.862959
26.47884941,27.47259331,19.41062355,8.188175
25.48416328,27.47621155,19.27353668,7.522943
24.48962593,27.48115921,19.13192368,6.865516
23.49601555,27.48808289,18.9855938,6.255216
22.50227737,27.49600792,18.83436012,5.66355
21.50987434,27.50593758,18.67903519,5.092183
20.51727104,27.51778984,18.51983261,4.583319
19.5255146,27.53167152,18.35704231,4.104322
18.5340023,27.54733467,18.189785,3.685247
17.54279518,27.56472397,18.01890182,3.327851
16.55296516,27.58349609,17.84666634,2.982225
15.56205082,27.60791969,17.67492867,2.67794
14.5722971,27.63299942,17.5026474,2.375299
13.58174038,27.65796471,17.3296032,2.115511
12.59213352,27.68262863,17.1588192,1.857367
11.60046959,27.72020531,16.99732971,1.644103
10.60779953,27.74367332,16.83218002,1.428885
9.61789322,27.7767086,16.68340492,1.254026
8.61985588,27.81174088,16.54421425,1.083895
7.62309408,27.84209442,16.40894699,0.950376
6.62175465,27.87496185,16.28295898,0.827572
5.62644386,27.90078163,16.17048264,0.731245
4.62741852,27.92265511,16.08017921,0.643689
3.61749721,27.94899178,16.00737953,0.57729
2.61289144,27.96650124,15.94646645,0.533978
1.60251749,27.98018265,15.90585899,0.500365
0.59673303,27.98879814,15.88941765,0.484831
41.47783661,26.49876022,20.83130836,19.250783
40.46589279,26.4951992,20.78682137,18.397929
39.45834732,26.49124146,20.72662163,17.547896
38.45316315,26.48712349,20.65411758,16.705607
37.45006561,26.48300362,20.57136917,15.883639
36.44921494,26.47948074,20.48046303,15.072795
35.44963074,26.47632408,20.38277054,14.263284
34.45137787,26.47395325,20.27940369,13.4556
33.4536972,26.47179985,20.17080116,12.662694
32.45666885,26.47029305,20.05710793,11.893579
31.46000481,26.4692421,19.93825912,11.127306
30.46324158,26.4688282,19.81369209,10.362833
29.46813393,26.46918678,19.68394852,9.61856
28.47274399,26.47093964,19.5490799,8.901193
27.47825623,26.47263145,19.40860367,8.188183
26.48464394,26.47635841,19.26332092,7.485425
25.49030113,26.48186111,19.11213493,6.825955
24.49856567,26.48777771,18.95537949,6.181417
23.50580215,26.49607086,18.79367065,5.552504
22.51431656,26.50643349,18.62631798,4.982907
21.52342606,26.51861191,18.45340347,4.442686
20.53440857,26.53211021,18.27608299,3.950013
19.54369736,26.54698563,18.09329414,3.536525
18.55544853,26.56698227,17.90752792,3.151493
17.56664467,26.59015083,17.71754074,2.803948
16.57904816,26.61402512,17.52221107,2.469383
15.59376144,26.63722038,17.32576752,2.158777
14.60621071,26.66527367,17.12969208,1.87177
13.61956215,26.69950676,16.93496323,1.607816
12.63303661,26.73637199,16.7424736,1.371555
11.64646816,26.76345253,16.55066299,1.145917
10.65282249,26.8098526,16.36744881,0.956924
9.67138386,26.84449768,16.189991,0.782476
8.67671108,26.87900734,16.0290699,0.622026
7.67757607,26.92095375,15.88297844,0.488287
6.67134571,26.96070671,15.73706245,0.375645
5.67123175,26.99656487,15.59268379,0.294747
4.67907476,27.02163696,15.47241974,0.217528
3.67283869,27.0458622,15.38121986,0.156029
2.66624188,27.07816696,15.31887913,0.119401
1.64503396,27.0976429,15.27231789,0.091356
0.62912226,27.09986687,15.23453903,0.078297
41.47433853,25.49879646,20.828619,18.706382
40.46192551,25.49530602,20.77831078,17.851847
39.45378113,25.49121475,20.71094322,17.000918
38.44848251,25.48682976,20.63010025,16.151746
37.44635391,25.48302841,20.53878021,15.30618
36.44583893,25.47943115,20.43897438,14.477398
35.44727707,25.47664261,20.33226967,13.667818
34.44979477,25.47415543,20.21968269,12.860758
33.45294952,25.47248268,20.10153198,12.055407
32.45674896,25.47101212,19.97784233,11.257942
31.46050835,25.47027588,19.84809875,10.48907
30.4656601,25.4704361,19.71256256,9.72808
29.47052002,25.47172165,19.57084656,8.970463
28.47714615,25.4731102,19.42310715,8.229532
27.48396683,25.47704697,19.26974297,7.524076
26.49110031,25.48128319,19.10977936,6.826803
25.49985504,25.48680115,18.9438839,6.144461
24.50857353,25.49596024,18.77208328,5.515608
23.51869965,25.50496101,18.59327126,4.911039
22.5291748,25.5164299,18.40785217,4.34179
21.5414238,25.53063965,18.21686554,3.854595
20.55349922,25.54834938,18.01982498,3.422378
19.56711197,25.56786156,17.81624985,3.025696
18.58246231,25.58793259,17.60677528,2.65507
17.59857559,25.61099625,17.39433861,2.294077
16.61280823,25.64361,17.1782608,1.975549
15.63025379,25.67494392,16.95450211,1.663819
14.64963245,25.70772743,16.72888565,1.394552
13.66840839,25.74313354,16.50433922,1.130689
12.68793297,25.78287506,16.28287506,0.908331
11.70261955,25.83156967,16.06505585,0.695024
10.72631168,25.87402344,15.85885048,0.516748
9.72455311,25.92725563,15.65574455,0.344461
8.7481308,25.97198105,15.46098614,0.21323
7.73873854,26.00217628,15.2587471,0.081655
6.75338459,26.04282951,15.0790062,-0.010874
5.7437048,26.10408211,14.92709923,-0.080636
4.73102903,26.15028,14.75907612,-0.121506
3.74658632,26.17949295,14.62995338,-0.163914
2.73036861,26.20528412,14.5474205,-0.203983
1.72361088,26.22912025,14.50477886,-0.233129
41.47094345,24.4989624,20.82598114,18.189633
40.45777512,24.49555588,20.76969528,17.312632
39.44871521,24.49094391,20.69450188,16.45336
38.44452286,24.48692131,20.6052742,15.60497
37.44242859,24.48303223,20.50521851,14.75824
36.44288635,24.47962189,20.39630127,13.914002
35.44535446,24.47677994,20.28043938,13.07836
34.44842148,24.47472572,20.15833473,12.266473
33.45281601,24.47285271,20.03032303,11.462469
32.4571991,24.47190666,19.89611626,10.660454
31.4623642,24.47170448,19.75543213,9.862838
30.46825027,24.47227859,19.60814285,9.095235
29.4747467,24.47360229,19.45403481,8.342314
28.48245621,24.47698975,19.29323769,7.597269
27.49102783,24.48047447,19.12575722,6.867409
26.49992943,24.48641014,18.95114899,6.182642
25.51086235,24.49438095,18.7696228,5.51725
24.52163696,24.50196457,18.58041954,4.876155
23.5340786,24.5140419,18.38393593,4.308809
22.54796219,24.52894211,18.18031311,3.794057
21.56293297,24.5447197,17.96865273,3.343604
20.5783596,24.56289291,17.74898911,2.936771
19.59715652,24.58581734,17.52329254,2.538058
18.61410332,24.61403275,17.29076576,2.172565
17.63651466,24.64223671,17.05041313,1.827387
16.65757751,24.66876793,16.80308342,1.500211
15.68007565,24.70966721,16.55433655,1.210646
14.70183849,24.7531414,16.29706573,0.941519
13.73313236,24.79786873,16.04125214,0.704399
12.75745201,24.84971046,15.79128742,0.483877
11.7744627,24.90041351,15.53480244,0.29256
10.80040264,24.94987679,15.27959728,0.123464
9.81486511,24.99446869,15.02006149,-0.022478
8.82183933,25.04813766,14.75908375,-0.135633
7.83819962,25.12372589,14.52666378,-0.217265
6.83721924,25.1822319,14.28167152,-0.276103
5.86808968,25.22094154,14.06874561,-0.337029
4.85407591,25.30410767,13.97433186,-0.390536
3.78888702,25.36329651,13.80968857,-0.409277
2.8356967,25.39128876,13.69489384,-0.426008
1.76754749,25.40415764,13.61093521,-0.455199
41.46809387,23.49927139,20.82356071,17.69636
40.45259476,23.49537659,20.76071167,16.80798
39.4444313,23.4910965,20.67743111,15.925935
38.44039917,23.48703766,20.57982254,15.059981
37.43886185,23.4831028,20.47076797,14.211484
36.44039917,23.47980499,20.35267258,13.368072
35.44345474,23.47724533,20.22732353,12.526892
34.44807434,23.47507477,20.09555817,11.688617
33.45284653,23.47366524,19.95728302,10.870365
32.45849609,23.47289085,19.81220055,10.070665
31.46512985,23.47302437,19.66026306,9.275109
30.47167969,23.474123,19.50069427,8.484066
29.48030281,23.47646904,19.33374596,7.719126
28.48927307,23.47983742,19.15940857,6.981956
27.49983788,23.48540497,18.97742462,6.258754
26.51152229,23.492136,18.787817,5.55617
25.52273941,23.50003052,18.58888626,4.91244
24.53775406,23.51102638,18.38137054,4.311129
23.55340767,23.52431679,18.1660099,3.765809
22.57081223,23.5390873,17.94204712,3.315567
21.58853149,23.55926895,17.70881271,2.880103
20.60889244,23.58177185,17.46524429,2.463902
19.63243294,23.60733223,17.21375465,2.08313
18.6560936,23.63335228,16.95046425,1.710666
17.68341064,23.66844177,16.68187141,1.380422
16.71195412,23.71043205,16.40428162,1.067453
15.7407465,23.74733925,16.11128426,0.787422
14.78523159,23.79950523,15.83344078,0.531466
13.80196095,23.85632324,15.53866768,0.303919
12.83884048,23.90334702,15.22814369,0.101271
11.87370396,23.96652985,14.92527676,-0.059449
10.89069939,24.0333519,14.6072464,-0.205352
9.91327,24.10921097,14.28123283,-0.293875
8.93167686,24.19334602,13.95376205,-0.364368
7.9739728,24.25510597,13.6599741,-0.41998
6.97168159,24.35197639,13.44008827,-0.479355
5.94400358,24.43813515,13.17680359,-0.490122
4.99256134,24.42664528,12.88900948,-0.523676
3.95066118,24.48478889,12.79027271,-0.585959
2.89866138,24.54122162,12.65589905,-0.583653
1.89539766,24.58458519,12.57664013,-0.594567
41.46466064,22.49897957,20.82083321,17.202391
40.4478569,22.49534035,20.75118828,16.312663
39.44042587,22.49125862,20.66004372,15.429988
38.4360466,22.48720169,20.55378151,14.549582
37.4357872,22.48323631,20.43553352,13.675793
36.43807983,22.48022461,20.30815697,12.822453
35.44238663,22.4775486,20.17321968,11.982401
34.44765854,22.47568703,20.03137779,11.144843
33.45386887,22.47434807,19.88260841,10.31019
32.46061325,22.47401619,19.72651482,9.485366
31.46810722,22.47445488,19.56246567,8.69049
30.47725487,22.47624969,19.39070892,7.905962
29.48650551,22.47923088,19.21039772,7.130072
28.49819374,22.48339844,19.02177238,6.375937
27.51033783,22.48923111,18.82471466,5.668141
26.52379227,22.49664497,18.61802483,4.987142
25.53989601,22.50642967,18.40190125,4.346835
24.55654335,22.51972198,18.17609406,3.796732
23.57574654,22.53399849,17.93942451,3.318233
22.59755898,22.55213165,17.69314957,2.856539
21.62077332,22.57418251,17.43737793,2.433797
20.64462471,22.59917259,17.16765022,2.024178
19.67399406,22.6257534,16.88272476,1.64097
18.7053833,22.66100121,16.58568573,1.294876
17.74560356,22.69694328,16.27903557,0.967099
16.78518677,22.74158478,15.97113991,0.671296
15.81752682,22.80478096,15.6492424,0.403793
14.8751421,22.84758186,15.31930161,0.166748
13.89110756,22.90631104,14.95939445,-0.048521
12.94753075,22.98040771,14.59129047,-0.198195
11.97782326,23.04978943,14.19854546,-0.333251
11.01622677,23.13155556,13.78437233,-0.410473
10.06154537,23.22745895,13.39082527,-0.46555
9.11105347,23.325634,13.08626938,-0.532916
8.06086349,23.42456055,12.71334839,-0.562736
7.15760612,23.44056892,12.3589859,-0.603419
6.07765579,23.53175163,12.04294682,-0.60376
5.09153557,23.66786575,11.81048393,-0.567754
4.13143444,23.64904213,11.61822319,-0.631701
2.99658799,23.70201874,11.42461777,-0.626599
2.05031824,23.72380447,11.28885174,-0.630411
0.92926645,23.76124382,11.27049446,-0.63982
41.46084976,21.49912453,20.81762505,16.724499
40.44373703,21.49530602,20.74133301,15.81969
39.43585205,21.49155998,20.64226341,14.93459
38.43235016,21.48714066,20.52713013,14.054425
37.43277359,21.483675,20.39971924,13.178249
36.43619537,21.48044014,20.26285744,12.305369
35.4414711,21.47806168,20.1181221,11.44226
34.44804382,21.47624779,19.96607399,10.602532
33.45540619,21.47529221,19.80655289,9.770291
32.46352386,21.47489929,19.63895035,8.942506
31.47243309,21.47620583,19.46276093,8.121532
30.48324394,21.47782326,19.277771,7.331205
29.49515533,21.48165131,19.08407974,6.56615
28.50807762,21.48695755,18.88080406,5.818707
27.52243996,21.49309921,18.66674042,5.098136
26.54030228,21.50174141,18.44293594,4.448945
25.55912018,21.51406479,18.20931244,3.86196
24.57868767,21.52646255,17.96240997,3.349337
23.60335922,21.54328537,17.70396423,2.883692
22.62911224,21.56386757,17.43301201,2.43711
21.65830612,21.58453369,17.14733315,2.003603
20.69116402,21.61292076,16.84934425,1.610265
19.72478867,21.65141106,16.53545952,1.238035
18.76762581,21.69003296,16.20135117,0.89907
17.81435204,21.73759842,15.85045815,0.59783
16.87705612,21.78417969,15.49969864,0.31841
15.91922474,21.83376503,15.13210487,0.059293
14.95409966,21.90198898,14.71390533,-0.143126
14.03407955,21.96617317,14.29014397,-0.304019
13.05661678,22.05917549,13.80969906,-0.414387
12.15166473,22.1468277,13.35279083,-0.490039
11.15702724,22.27654266,12.88037872,-0.529699
10.25466728,22.37508965,12.45833492,-0.567572
9.23878002,22.42221069,11.95390987,-0.600523
8.30338955,22.50231361,11.55935669,-0.626672
7.24001074,22.59471512,11.19089985,-0.642216
6.26109648,22.6281414,10.80300808,-0.648252
5.27432728,22.68827438,10.52395439,-0.65488
4.19584894,22.73506546,10.27315521,-0.654833
3.1765461,22.75122833,10.089324,-0.678417
2.09925604,22.81615448,9.99313354,-0.673459
1.08891118,22.80169296,9.88922882,-0.68132
41.45679855,20.49910927,20.81429672,16.281226
40.4397583,20.49569321,20.73121262,15.362357
39.43144989,20.49136162,20.62404251,14.452233
38.42876053,20.48765755,20.50003624,13.560228
37.43011475,20.48381233,20.36340523,12.68389
36.43452835,20.48088074,20.21683311,11.812062
35.44131088,20.47846985,20.06222916,10.943955
34.44890976,20.47694969,19.89985847,10.079134
33.45733643,20.47572517,19.72904015,9.231488
32.46721268,20.47614479,19.54957962,8.408112
31.4783802,20.47715187,19.36110687,7.593125
30.49030495,20.48061371,19.16282463,6.790133
29.50488853,20.48415947,18.95470047,6.010767
28.52018356,20.48925972,18.735672,5.282058
27.53793144,20.49780464,18.50529099,4.592467
26.55822945,20.50774765,18.26340485,3.960269
25.58097267,20.51847267,18.00907516,3.430369
24.60621834,20.53479004,17.74159813,2.945521
23.6346302,20.55394173,17.45972824,2.471894
22.66624641,20.57500458,17.16157913,2.028564
21.70187378,20.60290146,16.84466934,1.616656
20.74486923,20.63263702,16.51026535,1.224027
19.79319763,20.66520119,16.15822983,0.868043
18.84222603,20.71488953,15.78688049,0.542094
17.90743065,20.77507591,15.40636349,0.255898
16.95893097,20.82896996,14.97920227,0.001727
16.03565407,20.88422012,14.53070259,-0.206953
15.08047295,20.9642601,14.01327896,-0.364795
14.18975353,21.0530777,13.51713943,-0.466601
13.21656418,21.16496849,12.96413994,-0.549683
12.30610561,21.2719593,12.38998127,-0.557445
11.3993082,21.34061623,11.88527775,-0.62227
10.36902809,21.44308662,11.30768585,-0.624818
9.42829227,21.55710602,10.77971554,-0.596038
8.44777393,21.56642914,10.33309078,-0.655425
7.37473059,21.55756378,9.82009888,-0.685078
6.41821814,21.6172905,9.49659252,-0.69236
5.32394981,21.59083748,9.15603256,-0.729245
4.30252123,21.56635857,8.85016823,-0.740641
3.23592591,21.61969757,8.68443584,-0.743955
2.20563054,21.59180641,8.53150558,-0.768737
1.12850153,21.61711884,8.48005295,-0.782184
41.45280838,19.49936104,20.81098557,15.840379
40.43533325,19.4956646,20.72080803,14.920607
39.42755508,19.49190903,20.60557365,14.008556
38.42526245,19.48776245,20.47266579,13.101025
37.42757797,19.48408127,20.32643318,12.200363
36.43355942,19.48124695,20.17034531,11.31946
35.44132996,19.47906876,20.00564766,10.452837
34.45043182,19.47714615,19.8325634,9.590264
33.46045685,19.47681046,19.65056229,8.733347
32.47148895,19.47707748,19.45876122,7.884404
31.48519707,19.47891617,19.25752449,7.069032
30.49931335,19.48202705,19.04588699,6.276651
29.51555061,19.48636436,18.82243347,5.5073
28.53487587,19.4933815,18.58771515,4.773892
27.55534363,19.50160408,18.34025383,4.115551
26.57952118,19.51252747,18.07951927,3.550401
25.60570335,19.52608299,17.80359268,3.037997
24.63737488,19.54175377,17.51287651,2.547513
23.67086029,19.56025887,17.20366287,2.091316
22.71084595,19.58523369,16.87589455,1.65269
21.75595856,19.61737633,16.53193665,1.242379
20.80362511,19.65439987,16.15800476,0.873391
19.86778069,19.69868279,15.7646637,0.534682
18.9365921,19.74990845,15.35491753,0.229275
18.00102425,19.7943058,14.89566994,-0.042084
17.07123756,19.86619949,14.37495232,-0.243451
16.17769623,19.93971443,13.84049034,-0.399943
15.23408699,20.05249977,13.22765732,-0.488621
14.37528515,20.13732719,12.69110107,-0.58502
