//X,Y,Z,C2M_signed_distances
40.48964691,32.49855042,20.80693054,21.938626
39.48551941,32.49563599,20.78369904,21.165004
38.48145676,32.49240875,20.7538414,20.391044
37.47832489,32.48854828,20.71782875,19.617251
36.47574997,32.48456573,20.67659569,18.856313
35.47369766,32.48090744,20.63067055,18.117824
34.47186279,32.47687912,20.58041954,17.384297
33.47028351,32.47352219,20.52612877,16.651328
32.46931839,32.46969986,20.46796036,15.925696
31.46861076,32.46656036,20.40638733,15.22879
30.46901894,32.46370697,20.34222031,14.54017
29.46936035,32.46138763,20.27582359,13.852006
28.46964645,32.45890808,20.20713806,13.178082
27.47040749,32.45743561,20.13624763,12.535057
26.47066879,32.45588303,20.06297684,11.893246
25.47220421,32.45574951,19.98782539,11.25788
24.47299004,32.45543671,19.91086388,10.659543
23.47388268,32.4548912,19.83148384,10.068009
22.47475624,32.45625687,19.74993896,9.481574
21.47656059,32.4579277,19.66691017,8.937626
20.47692871,32.46033859,19.58172989,8.401111
19.48005295,32.46351242,19.49546814,7.876586
18.48096848,32.46762085,19.40840912,7.396063
17.48321152,32.47241974,19.32059669,6.919826
16.48571014,32.47877884,19.23342896,6.477402
15.48662376,32.48440933,19.14540482,6.060136
14.48995304,32.4911499,19.05859184,5.655758
13.49171543,32.49929428,18.97389603,5.302407
12.49422646,32.50772858,18.89111137,4.953946
11.49698734,32.5164566,18.81132507,4.656122
10.49805164,32.52614594,18.73464584,4.372244
9.50167179,32.53491211,18.66210747,4.127943
8.50298214,32.54570389,18.59536934,3.908457
7.50529337,32.55378342,18.53351593,3.718962
6.5080533,32.56187057,18.48000717,3.557311
5.50796556,32.56998062,18.43234253,3.421846
4.50993776,32.57715988,18.39205742,3.314679
3.51118827,32.58278656,18.35935402,3.228477
2.51101518,32.58757019,18.33437729,3.167986
1.51236272,32.5919075,18.3175354,3.12734
0.51210731,32.59344101,18.30902481,3.10751
41.49224472,31.50061417,20.82146072,22.118144
40.48714828,31.49815559,20.80163002,21.312116
39.48193359,31.49522781,20.77339363,20.522596
38.4774971,31.49137688,20.73732376,19.746961
37.47427368,31.48760414,20.69450951,18.972816
36.47177505,31.48374176,20.64608955,18.198983
35.46992874,31.47985649,20.59271622,17.434758
34.4682312,31.47635841,20.53479004,16.694743
33.46700287,31.47245979,20.47250175,15.961463
32.4659996,31.46927834,20.40596771,15.228829
31.46617889,31.46632767,20.33595085,14.503893
30.46679688,31.46392059,20.26317596,13.809141
29.46744156,31.46161461,20.1878376,13.121313
28.46856689,31.460186,20.11007309,12.434759
27.46900749,31.45886803,20.02958488,11.76649
26.47067833,31.45872688,19.94675636,11.127199
25.47160339,31.45823097,19.86149406,10.487985
24.47318268,31.4581871,19.77358818,9.859976
23.47476006,31.45996475,19.6836071,9.271154
22.47639084,31.46177101,19.59127998,8.685135
21.47834969,31.46436882,19.49661636,8.113799
20.48019409,31.4678669,19.4000473,7.582793
19.48258972,31.47369576,19.30202293,7.05687
18.48528481,31.47899246,19.20267677,6.561994
17.48818207,31.48550224,19.10258865,6.095635
16.49092865,31.49175262,19.00210953,5.637399
15.49385357,31.50122452,18.90251923,5.235102
14.49671745,31.51063728,18.80342865,4.840934
13.50076866,31.52044868,18.70641518,4.491613
12.50226116,31.5305481,18.61126709,4.166758
11.50535107,31.54223061,18.51918411,3.877526
10.50855255,31.55265236,18.43092155,3.625456
9.51154518,31.56645393,18.34855652,3.402527
8.51345062,31.57692719,18.27114296,3.220238
7.51586771,31.59003448,18.20029068,3.054578
6.51766682,31.59862137,18.13559341,2.918158
5.52041435,31.60910416,18.08167076,2.791471
4.51904058,31.61778831,18.03454781,2.695829
3.52034855,31.62548447,17.9955616,2.611687
2.5216341,31.63232613,17.96666145,2.556064
1.52043891,31.63726616,17.94727135,2.513839
0.51968753,31.63952255,17.93557549,2.496295
41.4901886,30.50045204,20.81971359,21.524085
40.48385239,30.49807358,20.79569626,20.711795
39.47821426,30.49431992,20.76182556,19.900554
38.47359467,30.49089813,20.71926308,19.105607
37.47011185,30.48687172,20.66936302,18.328448
36.46800232,30.48291969,20.6135025,17.554597
35.46612549,30.4793148,20.55240822,16.78102
34.46496201,30.47556686,20.48647499,16.013883
33.46377182,30.47213936,20.41584778,15.272132
32.46349716,30.46907616,20.34074211,14.540021
31.46416473,30.46652222,20.26204109,13.80911
30.46501923,30.46425629,20.18030167,13.084746
29.46650314,30.46263123,20.09571648,12.392295
28.4676342,30.46126938,20.00833321,11.706284
27.46894264,30.46086121,19.9180336,11.021758
26.47073174,30.46046638,19.82489967,10.361725
25.47247505,30.46100616,19.7287426,9.725347
24.47503471,30.46310806,19.63020897,9.092126
23.4768734,30.46479416,19.52884293,8.478545
22.47942162,30.46787834,19.42495155,7.89774
21.48144531,30.47201538,19.31821442,7.320464
20.48508835,30.47710991,19.20921516,6.775977
19.48745537,30.48271179,19.09817123,6.258036
18.49198914,30.49030304,18.98584366,5.75001
17.49567986,30.49902725,18.87318039,5.29495
16.49872971,30.50901031,18.75912666,4.853891
15.50385475,30.51799965,18.64556313,4.450263
14.50804138,30.53003502,18.53441811,4.085922
13.50949287,30.54260254,18.42351913,3.748822
12.51512432,30.55478668,18.3137455,3.469327
11.51812744,30.56781387,18.20709991,3.211535
10.52368832,30.58319855,18.10698318,3.001651
9.52351665,30.59630585,18.01059723,2.787942
8.53028965,30.61294365,17.92342377,2.620221
7.52848291,30.62590599,17.84149933,2.448433
6.53185225,30.64114952,17.76535034,2.322209
5.53212309,30.65002441,17.6974678,2.192339
4.53662348,30.66065025,17.64177513,2.102903
3.53506041,30.67273903,17.59865761,2.017658
2.53267169,30.68116188,17.56411171,1.966076
1.53123558,30.68334007,17.53647041,1.922466
0.53100812,30.69055367,17.52317619,1.909985
41.48785782,29.50067711,20.81788445,20.930051
40.48033524,29.49741554,20.78918839,20.116107
39.47426224,29.49417114,20.74927139,19.302903
38.46927261,29.49021149,20.69984627,18.489848
37.4661293,29.48626328,20.6425724,17.689439
36.46398163,29.48252296,20.57897949,16.910234
35.46277618,29.47866821,20.50991821,16.136785
34.4617157,29.47535706,20.43569946,15.363774
33.46117783,29.47206497,20.35651207,14.594567
32.46148682,29.46907425,20.27261925,13.851818
31.46263123,29.46695709,20.18500137,13.121681
30.46412468,29.46503448,20.09390259,12.392362
29.46559525,29.46356392,19.9995327,11.669209
28.46764565,29.46314812,19.90210533,10.979953
27.46995735,29.46282387,19.8015461,10.297349
26.47182274,29.46355057,19.69736862,9.61659
25.47496033,29.46494675,19.59032249,8.967346
24.47787476,29.46714783,19.48055267,8.337525
23.48078156,29.47092819,19.36766052,7.711847
22.48368263,29.47447586,19.25087357,7.118691
21.48729324,29.47896957,19.13087654,6.550179
20.49118614,29.48592949,19.00837326,5.990508
19.49619293,29.49361992,18.88358688,5.481742
18.50066566,29.50252724,18.75704575,4.991061
17.50606918,29.51283073,18.63019562,4.531754
16.51085854,29.52477455,18.50326157,4.122573
15.5161047,29.53882027,18.37574196,3.737437
14.52101421,29.55116653,18.24803734,3.422096
13.52643013,29.56400681,18.1212616,3.129028
12.52918243,29.58188438,17.99567032,2.875543
11.53552723,29.59752846,17.87247849,2.630536
10.54069233,29.61459923,17.75514603,2.415867
9.54355431,29.63302231,17.64360237,2.213755
8.54920292,29.64690781,17.53738594,2.039278
7.5510211,29.66650772,17.4438839,1.877353
6.54607344,29.68225288,17.35217285,1.7478
5.55708694,29.69965935,17.27098274,1.630998
4.55165625,29.71447563,17.2043972,1.542449
3.55621243,29.72442818,17.14883804,1.459504
2.55163622,29.73550034,17.10886192,1.409231
1.54953468,29.74928284,17.08132553,1.371783
41.48529816,28.500494,20.81590462,20.348523
40.47666931,28.49748039,20.78205299,19.521146
39.47011185,28.49366379,20.73583221,18.706527
38.46513367,28.48984146,20.67922974,17.89322
37.46201324,28.48601532,20.61437035,17.081143
36.46039581,28.48203087,20.54281998,16.275613
35.45929718,28.47860146,20.46545601,15.492791
34.45885086,28.47511292,20.3827095,14.72
33.45898819,28.47207069,20.29473495,13.948099
32.45992661,28.4697113,20.20196915,13.178817
31.46158981,28.46752548,20.10496521,12.435023
30.46352768,28.46617126,20.00420761,11.706924
29.46606636,28.46575928,19.89998055,10.980804
28.46851158,28.46493149,19.79191399,10.260134
27.47133446,28.46556664,19.68015671,9.575581
26.47477531,28.46718597,19.56517601,8.898976
25.47888374,28.46968842,19.44699478,8.226355
24.48166847,28.4721508,19.32470131,7.589505
23.48582649,28.47502708,19.19821358,6.970328
22.49040604,28.48105431,19.06858444,6.360185
21.49484825,28.48873138,18.93524933,5.79776
20.50033379,28.49595451,18.79791832,5.254896
19.50609207,28.50514793,18.65760612,4.736359
18.51312447,28.51735306,18.51628876,4.278747
17.51994133,28.52926636,18.37366676,3.844912
16.52717781,28.54177284,18.23080826,3.476862
15.53236198,28.55507851,18.08599472,3.147774
14.53986168,28.57306671,17.94141388,2.844939
13.54420471,28.59047508,17.79477882,2.566223
12.55417156,28.60851479,17.65216637,2.30287
11.55368805,28.62941742,17.50522041,2.07235
10.56605339,28.64874458,17.36489677,1.854934
9.56943512,28.66941643,17.23118401,1.666506
8.57722664,28.70059967,17.11620331,1.495135
7.57769489,28.7175808,17.00054359,1.342488
6.5848279,28.74175644,16.89748192,1.214991
5.57535458,28.7672596,16.8071003,1.104188
4.57230616,28.77906036,16.71104622,1.02135
3.58098149,28.79015923,16.63106918,0.950523
2.57507706,28.79961777,16.56760597,0.906497
1.58077717,28.81317902,16.54291916,0.866461
41.48235703,27.50045967,20.8136673,19.797221
40.47296524,27.49717522,20.77452469,18.948062
39.46582413,27.49360466,20.72161484,18.113454
38.46098709,27.48977661,20.65773582,17.296794
37.45804596,27.4856739,20.58507538,16.484418
36.4564209,27.48188591,20.50506401,15.673165
35.45635223,27.47834206,20.41923332,14.864855
34.45627975,27.47520256,20.32773781,14.076788
33.45726776,27.47249985,20.230793,13.305727
32.45868683,27.47002411,20.12877464,12.535694
31.46130371,27.46889114,20.02251053,11.768263
30.46373558,27.46795273,19.91182709,11.02322
29.46700096,27.46694565,19.7970295,10.298414
28.47010422,27.46744919,19.67790604,9.576296
27.47459412,27.46913528,19.5551548,8.862256
26.47882271,27.47082329,19.42842484,8.185609
25.48276901,27.47292137,19.29730988,7.517348
24.48774529,27.47649574,19.16153336,6.85716
23.49360466,27.48275566,19.02206039,6.24384
22.49875641,27.4887886,18.87798309,5.647089
21.50505447,27.49546242,18.72908211,5.068554
20.51238632,27.50684738,18.57719612,4.553992
19.51968384,27.51923752,18.4217186,4.066444
18.52754402,27.53114891,18.26198769,3.635295
17.53775215,27.54531288,18.1015377,3.267962
16.54532433,27.56064224,17.93871689,2.913384
15.55459499,27.57894707,17.77513123,2.60037
14.5629406,27.59587097,17.60875511,2.287715
13.56943321,27.61816788,17.43823242,2.023045
12.58210564,27.63777351,17.26690865,1.762177
11.58752537,27.66860008,17.10341454,1.543268
10.59122086,27.69656181,16.93103027,1.334186
9.60957623,27.72454071,16.77570534,1.161021
8.61493969,27.74402618,16.62801361,0.983657
7.61936808,27.78228569,16.51005173,0.847137
6.60685539,27.79637146,16.36956024,0.713895
5.61246204,27.80646896,16.21853638,0.625082
4.63254833,27.84034157,16.12979889,0.549038
3.60835385,27.88306999,16.06803513,0.488702
2.5894804,27.90594673,15.97539234,0.465702
1.6063416,27.88698387,15.87287712,0.439141
0.61529344,27.89754295,15.86544323,0.420598
41.47929382,26.50029564,20.81125069,19.251983
40.46881485,26.49721909,20.76651764,18.400619
39.46177673,26.49359322,20.7069664,17.551246
38.45656586,26.48965263,20.63549423,16.709121
37.45392609,26.48550034,20.55448914,15.887628
36.45322418,26.48191261,20.46608925,15.077011
35.45346069,26.47854805,20.37150955,14.267388
34.45419693,26.47536087,20.27099228,13.458531
33.4557457,26.47273445,20.16477966,12.664794
32.45830536,26.47119331,20.05341721,11.895395
31.46130943,26.46960258,19.93732643,11.128544
30.4646492,26.4688549,19.81652832,10.36388
29.46866035,26.46919823,19.69075584,9.618731
28.47348022,26.47035217,19.56082726,8.90074
27.47790337,26.47158051,19.42583275,8.185981
26.48392868,26.4740963,19.28631973,7.481101
25.48870087,26.47738075,19.14105415,6.817929
24.49656487,26.48268127,18.99193764,6.17033
23.50238609,26.48848534,18.83812904,5.53526
22.50902939,26.49560738,18.67801666,4.957625
21.51834106,26.5076046,18.51447487,4.410768
20.52682304,26.51755905,18.34574509,3.905416
19.53553963,26.53081512,18.17152596,3.480009
18.54715919,26.54701614,17.99429512,3.087768
17.55924606,26.56420708,17.81334686,2.731348
16.5689888,26.58270073,17.62805939,2.386409
15.58013725,26.59871483,17.43367004,2.067515
14.59476089,26.62164688,17.24047852,1.776103
13.60604,26.65070534,17.04844856,1.505458
12.6158514,26.68656731,16.85020638,1.270121
11.6343441,26.71218681,16.6521492,1.048051
10.62756157,26.74778175,16.44826889,0.857256
9.64935017,26.77573204,16.24406052,0.692606
8.66763783,26.81293106,16.07762146,0.540691
7.65555954,26.80892754,15.86273193,0.402425
6.68918228,26.85506058,15.73242569,0.295209
5.64816284,26.91475487,15.59675026,0.220613
4.6867609,26.92196274,15.44477463,0.150382
3.65377331,26.90810585,15.29181957,0.085324
2.66162395,26.93823624,15.1847229,0.071772
1.66754532,27.01821136,15.1882267,0.069712
0.64474165,27.00969315,15.14661026,0.048751
41.47596359,25.5005455,20.80870247,18.707816
40.46497726,25.49723244,20.7582531,17.854591
39.45752335,25.49369431,20.69195938,17.004621
38.45207214,25.48958588,20.61253166,16.155578
37.45011902,25.48563004,20.52300644,15.310205
36.45019913,25.48197556,20.42599869,14.482034
35.45080185,25.47865295,20.32241249,13.671611
34.45256042,25.47584152,20.21270561,12.863867
33.45493317,25.47364235,20.09699821,12.057654
32.45796585,25.47165298,19.9757328,11.259299
31.46244812,25.4709301,19.84945297,10.490959
30.4667778,25.47063637,19.71821594,9.728901
29.47171593,25.47164917,19.58201218,8.970807
28.47654533,25.47240829,19.43975639,8.227467
27.4834137,25.47456169,19.2922039,7.519833
26.48953438,25.47776031,19.13883972,6.819548
25.49744034,25.48317146,18.98030281,6.134093
24.50522041,25.48881721,18.81592178,5.49869
23.51386452,25.49449921,18.64487839,4.886003
22.52443886,25.50554657,18.47008514,4.308758
21.53425217,25.51501274,18.28940582,3.806746
20.54431343,25.5293541,18.10199738,3.36153
19.55639076,25.54371834,17.90627861,2.956167
18.57185173,25.5602169,17.7062645,2.578149
17.58446693,25.58027077,17.50224686,2.20853
16.60334396,25.60114861,17.29179382,1.880846
15.61182308,25.63668823,17.07737923,1.562944
14.63015556,25.66203308,16.84520721,1.291081
13.64971066,25.68482208,16.60821915,1.024808
12.66542721,25.72035027,16.37497139,0.803506
11.68064499,25.75775909,16.13623047,0.592875
10.68763256,25.79164886,15.88361931,0.426523
9.70469379,25.84391022,15.64256954,0.279102
8.73095417,25.84969521,15.39649963,0.144551
7.71669674,25.92425728,15.1969471,0.045655
6.72703791,25.91635513,14.89810944,-0.024254
5.76520729,25.92638016,14.67942619,-0.093194
4.76234818,25.96738434,14.5646677,-0.165758
3.73394418,26.0185318,14.44009876,-0.20012
2.77170563,26.0734005,14.3587265,-0.210689
1.73385119,26.03121948,14.24343491,-0.261514
41.47265244,24.5005455,20.80610847,18.191007
40.46130753,24.49755478,20.74996376,17.31582
39.45263672,24.49361229,20.6763134,16.457341
38.44824219,24.48971558,20.58884239,15.608977
37.44634628,24.48571777,20.49087715,14.762502
36.44718552,24.48204613,20.3848629,13.918606
35.44891357,24.47919273,20.27236176,13.082488
34.45118332,24.47622108,20.15319824,12.269518
33.4541626,24.47442818,20.02768707,11.46448
32.45890808,24.47299004,19.89623833,10.662471
31.46388626,24.47239876,19.75953674,9.864368
30.46996689,24.47288322,19.61775589,9.096529
29.47501373,24.47309113,19.46959305,8.341189
28.48208427,24.47528839,19.31518745,7.593889
27.48945808,24.47815514,19.15444756,6.861114
26.49834061,24.48271561,18.98762512,6.17292
25.50701332,24.48755264,18.81404877,5.500206
24.51678467,24.49436378,18.63332748,4.852572
23.52811813,24.5043087,18.44615173,4.275451
22.54077721,24.51317596,18.25243759,3.74548
21.55401039,24.52552795,18.05217552,3.282057
20.56653214,24.53860474,17.84263229,2.86497
19.58373642,24.55998993,17.62818527,2.458436
18.59447861,24.57823753,17.395895,2.082605
17.62477112,24.59568596,17.159935,1.731715
16.64341736,24.62947083,16.92951393,1.398775
15.65661526,24.64608765,16.66650581,1.095171
14.67674732,24.68818855,16.40100861,0.828066
13.70998859,24.73640633,16.13702202,0.598631
12.70632553,24.76163101,15.82392788,0.380429
11.74236679,24.78598404,15.49005222,0.217093
10.77308083,24.83391762,15.18880653,0.071822
9.79316711,24.85540962,14.87762547,-0.063058
8.79456902,24.91700554,14.56568718,-0.14595
7.83561707,24.90769005,14.21569347,-0.226791
6.84600401,25.01343727,14.06829262,-0.299508
5.8307128,25.06858826,13.83202839,-0.34458
4.84528923,25.05410194,13.53283501,-0.36582
3.87222815,25.07091522,13.32621384,-0.388138
2.87900972,25.06602287,13.19081211,-0.427866
1.8103174,25.12613678,13.11271763,-0.424301
41.46960068,23.50082397,20.80364227,17.697517
40.4565506,23.49738503,20.74123764,16.811538
39.4489212,23.49374962,20.66032028,15.930427
38.44381714,23.48995781,20.56474113,15.063851
37.44305801,23.48575783,20.45796013,14.216028
36.44439697,23.48249245,20.34306526,13.372637
35.44742584,23.47929764,20.22134972,12.531234
34.45015335,23.47739983,20.0927887,11.69161
33.45425797,23.47516251,19.95711708,10.87239
32.45972061,23.47434044,19.81522751,10.072454
31.4671669,23.47409821,19.66811752,9.2771
30.47287941,23.47432709,19.51473045,8.484336
29.48039627,23.47577095,19.35445023,7.716993
28.48813057,23.4781189,19.18718529,6.976702
27.49798775,23.48186111,19.01345062,6.249325
26.50749779,23.48677826,18.83219719,5.540238
25.51831245,23.49287796,18.64224815,4.889571
24.53066826,23.50048828,18.4440918,4.276438
23.54592705,23.5106411,18.23972702,3.717308
22.55798721,23.52168846,18.02462769,3.253666
21.57668304,23.53435898,17.80058289,2.809267
20.59428978,23.55263329,17.56724739,2.383008
19.61496735,23.56580162,17.32060814,1.990037
18.639431,23.59647179,17.07129669,1.613173
17.6587925,23.6370182,16.80853844,1.279543
16.68799782,23.64365959,16.51750183,0.949862
15.69912148,23.68969917,16.20646477,0.676802
14.75963783,23.70943069,15.88110638,0.430269
13.74806976,23.72953033,15.503088,0.206859
12.82297707,23.77938843,15.18138313,0.027825
11.78655243,23.85386467,14.78453827,-0.103163
10.88627148,23.87653542,14.34716702,-0.188793
9.89470005,23.92378044,13.95169067,-0.270647
8.91918087,23.9612999,13.52980995,-0.32946
7.99109411,24.05911446,13.28077888,-0.371923
6.9555068,23.96850967,12.85278797,-0.485636
5.95987701,24.0322628,12.45962334,-0.439207
5.02899313,24.13694572,12.31040096,-0.452169
3.96912479,24.15303612,12.1737833,-0.532188
2.98110843,24.15312767,11.97416878,-0.540184
1.99229395,24.15969467,11.81139851,-0.542972
41.46617126,22.50053024,20.80088425,17.203527
40.4528389,22.49755096,20.73247528,16.317231
39.44429016,22.49401665,20.64409637,15.43403
38.43992996,22.4898243,20.54003334,14.553733
37.43948746,22.48617172,20.42444611,13.680122
36.44240189,22.48249245,20.30054283,12.827132
35.44572449,22.4802494,20.16968155,11.986619
34.44989395,22.47768402,20.03143501,11.147805
33.45479584,22.47646141,19.88566971,10.312081
32.46170425,22.47557831,19.73324966,9.486962
31.46976662,22.47555733,19.57485008,8.691862
30.4778595,22.47649574,19.40994072,7.905134
29.48594666,22.47815132,19.23704147,7.126087
28.49628639,22.48164749,19.05675697,6.368106
27.50692558,22.4849968,18.86837387,5.654026
26.51917267,22.49013519,18.67198944,4.965023
25.53100204,22.49788857,18.46530533,4.312423
24.5471344,22.50696945,18.24871063,3.748594
23.56463814,22.51642418,18.02314949,3.256844
22.58231163,22.52984428,17.78591919,2.784846
21.6028614,22.54564667,17.53562546,2.353767
20.62799072,22.56280327,17.27307701,1.936252
19.65120506,22.58996773,16.9962616,1.545194
18.6931839,22.61767387,16.71992683,1.188983
17.70122528,22.62958145,16.40465736,0.832257
16.7240448,22.67723465,16.04211617,0.559011
15.79898262,22.69273949,15.67590332,0.302035
14.78111744,22.74575996,15.25451469,0.085174
13.88451576,22.79506683,14.87230396,-0.086795
12.85042381,22.80494308,14.36023903,-0.245977
11.96136951,22.81490517,13.8120079,-0.313316
10.98062325,22.9273262,13.34670448,-0.347326
10.06359005,22.981287,12.84282875,-0.367507
9.11185169,23.02569771,12.46007919,-0.436058
8.06422234,22.96659279,11.95932007,-0.530274
7.10991335,23.07495689,11.64478874,-0.531442
6.09922743,23.15298843,11.28042793,-0.505332
5.12957907,23.07416916,10.92388916,-0.585683
4.13428211,23.0397377,10.64076042,-0.61874
3.11265373,23.09625053,10.50564098,-0.630812
2.06670976,23.15813255,10.4238596,-0.63587
1.11814594,23.14360237,10.32821178,-0.641181
41.46264648,21.50100136,20.79814911,16.726009
40.44872284,21.49773407,20.72375679,15.824411
39.43957901,21.4938221,20.62748909,14.938315
38.43587875,21.49010277,20.51469612,14.05849
37.43685532,21.48605537,20.39044762,13.182695
36.44001007,21.48341942,20.2575798,12.310042
35.4450531,21.48021698,20.11736298,11.446432
34.44984436,21.4785099,19.96935654,10.605263
33.45624924,21.47749329,19.81351471,9.772059
32.46408081,21.4770031,19.65035248,8.943662
31.47336769,21.47772408,19.48045921,8.12199
30.48297882,21.47801399,19.30311012,7.328652
29.49371719,21.48119545,19.11805344,6.560082
28.50414848,21.48362923,18.92315865,5.80566
27.51828766,21.48901558,18.71994019,5.078889
26.53219986,21.49460793,18.50709343,4.416741
25.54759598,21.50245857,18.2830162,3.813796
24.56600571,21.51224327,18.04679108,3.288683
23.58630753,21.5237484,17.79715729,2.81248
22.60879135,21.53463745,17.5308876,2.355763
21.63657379,21.55127716,17.24914932,1.916672
20.6706295,21.57522392,16.95817566,1.517449
19.70435905,21.60485268,16.65289879,1.135251
18.72961044,21.62538147,16.31919861,0.773924
17.765728,21.66138649,15.95248318,0.467755
16.7890358,21.69253349,15.51569557,0.202835
15.84148693,21.7322979,15.03532982,0.002056
14.91614056,21.73653221,14.52207947,-0.175714
13.95849323,21.76206779,13.99276829,-0.326876
12.99655628,21.84679985,13.31601524,-0.333916
12.14430809,21.94120598,12.83817482,-0.372406
11.1315136,21.93667603,12.26157379,-0.46995
10.18721104,21.99219131,11.6758194,-0.469824
9.2205286,21.94312668,11.13749599,-0.549519
8.20396233,21.97384071,10.69826794,-0.619054
7.24037695,21.85971451,10.21132755,-0.697655
6.15481853,21.85801315,9.82449341,-0.753034
5.23630428,21.92948914,9.54668617,-0.724008
4.16928864,21.92862892,9.34210396,-0.778386
3.17536998,21.88999939,9.039258,-0.759294
2.20730186,21.90128136,8.83589363,-0.712021
1.12948298,21.97918129,8.88547707,-0.744741
41.45975494,20.50117874,20.79584885,16.283874
40.44377136,20.49768639,20.71476364,15.366059
39.43513107,20.49399757,20.61032677,14.45612
38.432621,20.48975945,20.48903275,13.56422
37.43392944,20.48676682,20.35610199,12.688456
36.43832016,20.48318291,20.21414948,11.816445
35.44435501,20.48089981,20.06444168,10.947813
34.4505806,20.47939873,19.90682793,10.081726
33.45783615,20.47830391,19.74065018,9.23296
32.46772385,20.47891998,19.56705475,8.409127
31.47759438,20.47882843,19.38524818,7.591381
30.48932076,20.48091125,19.19526672,6.785549
29.50127983,20.48209763,18.99604225,5.999639
28.51546478,20.48724937,18.7875042,5.265034
27.53036308,20.49138069,18.56762695,4.563154
26.54777145,20.49814415,18.33690834,3.915809
25.56794167,20.50607491,18.09497261,3.369674
24.58707809,20.51829529,17.83726883,2.873445
23.61356735,20.52955437,17.56337547,2.390056
22.63931656,20.54811287,17.26825333,1.939838
21.67585373,20.57122612,16.95357895,1.524527
20.71679878,20.58577156,16.61561966,1.123301
19.75530434,20.60880089,16.26328087,0.755574
18.79382324,20.62713051,15.85877037,0.421681
17.82775688,20.64927673,15.38515377,0.142331
16.88841629,20.68558884,14.87181091,-0.073233
15.93917179,20.73498154,14.29792023,-0.233478
15.01215553,20.80932808,13.69233799,-0.335226
14.09923267,20.81201363,12.98459625,-0.396436
13.18513489,20.91008377,12.4026823,-0.44861
12.21702671,20.88190651,11.65293884,-0.490643
11.28992462,20.85731125,10.98395252,-0.546846
10.28664207,20.84671402,10.40632439,-0.623309
9.31991386,20.81078339,9.86533833,-0.692141
8.25123215,20.70059395,9.3242712,-0.796944
7.2342639,20.7677021,8.97437668,-0.81985
6.24922371,20.75235176,8.56345081,-0.813004
5.19849443,20.69015694,8.20349026,-0.83649
4.21468353,20.65383148,7.91761971,-0.841216
3.17016768,20.74629021,7.84021854,-0.857264
2.1635797,20.85001755,7.70059776,-0.779598
1.25818944,20.78347778,7.57893753,-0.804508
41.4566803,19.50070763,20.79325104,15.843547
40.43867111,19.49786377,20.70540237,14.923831
39.4312706,19.49349022,20.59261894,14.012032
38.42921829,19.49041748,20.46313286,13.105401
37.43168259,19.48667526,20.32145691,12.205065
36.4369812,19.48384476,20.17035675,11.323714
35.44441223,19.48155022,20.01133919,10.456745
34.45158386,19.48003197,19.84388351,9.592494
33.46073151,19.47980499,19.66775703,8.734385
32.47102356,19.47909927,19.48266029,7.883413
31.48348999,19.48044586,19.28923225,7.065172
30.49557877,19.48163795,19.08563232,6.26742
29.51163673,19.48514938,18.8724823,5.492954
28.527174,19.48827362,18.64838028,4.747439
27.54466629,19.49482918,18.41172409,4.07563
26.56666756,19.50236511,18.16298103,3.492341
25.58948326,19.50986671,17.90005684,2.967676
24.61195183,19.51834106,17.61491776,2.464213
23.64628029,19.52927399,17.31024551,2.002048
22.68393326,19.55296326,16.99255562,1.555869
21.72531319,19.57946587,16.65718079,1.135121
20.74518394,19.61859703,16.26523781,0.759717
19.82121849,19.61502457,15.82811165,0.423157
18.85494232,19.65121269,15.35345364,0.121576
17.90844727,19.68364906,14.81201553,-0.119903
16.9576683,19.73180389,14.15731525,-0.277012
16.07210159,19.75704575,13.45982933,-0.374996
15.16074753,19.76512909,12.6422472,-0.408559
14.25712585,19.8442421,11.98002625,-0.46851
13.30511856,19.7608242,11.18693638,-0.557482
12.33899784,19.78307152,10.50757217,-0.629728
11.30843258,19.79372406,9.77516651,-0.650632
10.38120461,19.64888191,9.14206505,-0.732604
9.25818062,19.55106354,8.6047163,-0.871267
8.2396307,19.58306313,8.14880848,-0.872087
7.25427008,19.50130844,7.63498116,-0.852028
6.21496391,19.51555824,7.3051672,-0.864361
5.20471668,19.6080246,7.13261986,-0.880291
4.15031099,19.70413208,6.90095711,-0.823739
3.22138953,19.67592812,6.70377636,-0.81673
2.11736417,19.69996262,6.5745306,-0.810789
1.1655165,19.75187874,6.48632145,-0.767683
41.45289612,18.50085831,20.79015923,15.414798
40.43445587,18.49701691,20.69530487,14.482856
39.42739487,18.494133,20.57483482,13.570704
38.42601013,18.49036407,20.43705559,12.664084
37.42943573,18.48706245,20.28648567,11.762575
36.43640137,18.4842453,20.12661552,10.865766
35.4442749,18.48199463,19.9579277,9.974018
34.45399094,18.48097992,19.78097343,9.105166
33.46299744,18.47970581,19.59396744,8.248734
32.47578812,18.48050117,19.39751816,7.403803
31.48951721,18.48064232,19.19139862,6.570208
30.50526428,18.48368835,18.97539139,5.760122
29.52083969,18.48616982,18.74692917,5.000858
28.54146957,18.49061775,18.50638962,4.289719
27.56275177,18.49692917,18.25288582,3.648358
26.58637238,18.50387955,17.98386383,3.098659
25.61567879,18.51346779,17.69911957,2.591065
24.64407921,18.53054619,17.3939991,2.097407
23.67420387,18.54955482,17.05389977,1.626515
22.73381996,18.5574131,16.69916916,1.202933
21.76890182,18.5703125,16.30510902,0.789643
20.83192253,18.58166695,15.88821983,0.41299
19.832901,18.64683533,15.35514164,0.112485
18.95542908,18.62721252,14.78398609,-0.132933
17.98011208,18.65543938,14.05329514,-0.314652
17.12449646,18.68225861,13.33097076,-0.409542
16.15799332,18.73061562,12.52049065,-0.492688
15.28374386,18.83380127,11.74411297,-0.492248
14.36123085,18.75729752,10.86261845,-0.554247
13.35796165,18.71327782,9.97753429,-0.598392
12.41147423,18.59134483,9.24416447,-0.69945
11.31475639,18.51041794,8.61079597,-0.82446
10.25157833,18.48062515,7.98325443,-0.840449
9.28170681,18.44937325,7.48114586,-0.869571
8.19811726,18.44231796,7.01230526,-0.865231
7.19133282,18.52267838,6.71849442,-0.874167
6.15138865,18.54989815,6.33061886,-0.821767
5.23885536,18.51456261,6.03974342,-0.799304
4.12366104,18.53751183,5.84189129,-0.810527
3.13878155,18.62289429,5.70822239,-0.775549
2.17534637,18.68075562,5.71079159,-0.828437
1.07308233,18.76528358,5.65805912,-0.796009
41.44823074,17.50026321,20.78643799,15.024516
40.43091583,17.4978447,20.68478394,14.079781
39.42382813,17.49395943,20.55690765,13.144098
38.42300415,17.4905529,20.4107132,12.224511
37.42775726,17.48744202,20.25164986,11.322773
36.43568039,17.4845829,20.08272171,10.427088
35.44532776,17.48277473,19.90501404,9.536027
34.45494461,17.48070335,19.71722603,8.648829
33.46793365,17.48080063,19.52000809,7.773312
32.48066711,17.48086929,19.31199265,6.926679
31.49735069,17.48293877,19.09375381,6.1046
30.51429558,17.48386955,18.86360359,5.304319
29.53416061,17.48789597,18.62047195,4.543897
28.55628395,17.49345589,18.36364365,3.856684
27.58185577,17.49967003,18.09179878,3.281761
26.6107254,17.50781059,17.8032093,2.746823
25.64166832,17.5186348,17.4938736,2.225623
24.68045425,17.526474,17.1610527,1.740844
23.71782875,17.54873848,16.79620171,1.287557
22.77828789,17.57802963,16.41209412,0.865341
21.79877281,17.58919334,15.93173027,0.473843
20.89252472,17.58088303,15.40030289,0.159983
19.95084572,17.57302094,14.80842781,-0.137711
18.99194908,17.64680481,14.06956387,-0.308426
18.14577484,17.66048813,13.28086853,-0.398973
17.19402313,17.69558334,12.46715927,-0.521462
16.30787086,17.72806931,11.53027344,-0.517998
15.41245651,17.60924149,10.54589272,-0.57147
14.38707733,17.57199478,9.63287258,-0.636709
13.38672161,17.5420475,8.94321346,-0.742022
12.25510406,17.4975071,8.1741972,-0.795218
11.32443619,17.35334587,7.50659561,-0.833908
10.18265438,17.35788536,6.9754734,-0.883341
9.21191311,17.37281227,6.49139881,-0.856172
8.1579628,17.40973663,6.10150814,-0.852522
7.15757799,17.38569641,5.67563343,-0.809243
6.13552666,17.48258209,5.47198486,-0.83304
5.13402605,17.56141281,5.29331493,-0.825789
4.11116362,17.60402107,5.09126472,-0.793594
3.10428357,17.64131546,4.92381573,-0.757944
2.13574409,17.58349228,4.76304054,-0.749065
1.02852488,17.6270504,4.75137138,-0.773127
41.44392395,16.50118637,20.78280067,14.638556
40.42743301,16.49775505,20.67452049,13.693805
39.41982651,16.49415016,20.53864479,12.756273
38.42103958,16.49086952,20.38442421,11.82713
37.42602158,16.48752594,20.21673584,10.90248
36.43600082,16.48523712,20.03920937,9.992127
35.44587708,16.48255348,19.85181808,9.09939
34.45796967,16.48189545,19.6540184,8.216967
33.47153854,16.48096657,19.44564629,7.343338
32.48798752,16.48204231,19.22672081,6.484826
31.50504684,16.48241234,18.99556351,5.646347
30.52586555,16.48598289,18.75232124,4.863773
29.54707718,16.49003983,18.49412918,4.134462
28.57369423,16.4944725,18.22027206,3.492328
27.60198021,16.50022125,17.92870903,2.930245
26.63636589,16.50761223,17.61699867,2.403212
25.67420006,16.51650429,17.28186798,1.899667
24.71834183,16.53860664,16.92397881,1.418756
23.76852036,16.55373383,16.53260994,0.961563
22.80118942,16.53870773,16.03919983,0.554396
21.89972496,16.56912422,15.54975891,0.213923
20.91069031,16.61064529,14.90883827,-0.095029
20.0407753,16.6113205,14.17038727,-0.270743
19.149086,16.60463524,13.30706406,-0.391504
18.22405815,16.63839531,12.49828053,-0.537885
17.30239677,16.6234436,11.46534824,-0.561384
16.42245483,16.5989666,10.42433548,-0.548315
15.39461994,16.60354805,9.53355408,-0.63696
14.34692097,16.43875122,8.69480419,-0.784185
13.29281998,16.31577492,7.89725018,-0.847607
12.18836117,16.29624367,7.18475342,-0.87397
11.17953777,16.32863617,6.62037182,-0.862823
10.17992496,16.28436661,6.08542156,-0.854005
9.11215591,16.33902168,5.63197422,-0.83453
8.16315269,16.35928535,5.27931118,-0.825733
7.07250738,16.4889431,4.99618149,-0.801249
6.14759111,16.45351219,4.70729637,-0.792865
5.03286028,16.4623642,4.43030167,-0.763754
4.11545086,16.48062897,4.25396156,-0.739432
3.04085922,16.57285118,4.17974281,-0.751589
2.04471397,16.68322945,4.11342812,-0.718722
41.44054031,15.50130749,20.77975845,14.267161
40.42261124,15.49769688,20.66391373,13.308848
39.41749954,15.49464893,20.52072144,12.371217
38.41765976,15.49087715,20.35807419,11.440683
37.42538071,15.48822308,20.18201065,10.518891
36.43609619,15.48513031,19.99577522,9.602154
35.44757462,15.48343754,19.79902267,8.690555
34.46083069,15.48193741,19.59104919,7.789595
33.4765358,15.48152447,19.37175751,6.917939
32.4947052,15.48206615,19.1413002,6.067906
31.51475334,15.48422527,18.89807701,5.243806
30.53738022,15.48617649,18.64091492,4.460905
29.56283188,15.48973846,18.36808777,3.748931
28.59104156,15.4959116,18.07686234,3.164035
27.62617493,15.50284863,17.76650429,2.618416
26.66021729,15.51100826,17.42817688,2.087313
25.71305656,15.5249548,17.07066917,1.583199
24.75489044,15.52131081,16.66328239,1.114511
23.81169701,15.51916122,16.19808388,0.688316
22.88180351,15.58060455,15.70273972,0.316982
21.93699074,15.55831718,15.08296394,-0.022524
21.01140594,15.53981686,14.29937363,-0.248694
20.12872314,15.58232403,13.48915291,-0.396896
19.18328285,15.61956406,12.63000965,-0.55293
18.29862022,15.56615448,11.5639801,-0.58708
17.38881874,15.53687477,10.37975311,-0.551307
16.43354034,15.49105263,9.51546574,-0.67526
15.27862835,15.33256435,8.5866375,-0.853801
14.20689297,15.26570034,7.71050262,-0.86672
13.1706562,15.25812054,6.97977066,-0.865851
12.17988968,15.23567772,6.35077,-0.859608
11.10762691,15.23159885,5.74615383,-0.826909
10.15549469,15.31344891,5.35658455,-0.833031
9.05581188,15.35415936,4.92323589,-0.811973
8.10255337,15.34461689,4.53641701,-0.778031
7.08991194,15.32359695,4.20963097,-0.757701
6.02867699,15.43113232,4.00010109,-0.754142
5.04856205,15.52379227,3.815382,-0.731359
4.02045965,15.58838272,3.5932827,-0.653972
3.07311249,15.54115772,3.45801544,-0.660874
1.96266115,15.54891586,3.33022308,-0.630618
41.43655777,14.50069523,20.7761879,13.935457
40.41915131,14.49829006,20.6535778,12.967766
39.41392517,14.4945612,20.50280952,12.010358
38.41572952,14.49184513,20.33223915,11.063436
37.42420578,14.48835087,20.1477623,10.134718
36.43644333,14.48571396,19.9526577,9.220135
35.44940948,14.48336124,19.74640656,8.311083
34.46478271,14.4822073,19.5286026,7.4121
33.48206329,14.4822998,19.29873276,6.526998
32.50235367,14.48240566,19.05647469,5.663387
31.52523613,14.48419571,18.8014946,4.848819
30.54915237,14.48682499,18.52998734,4.094886
29.5788517,14.49022293,18.2408638,3.435572
28.61253357,14.49446106,17.93333626,2.862133
27.64870071,14.50181961,17.6027298,2.3061
26.69400787,14.51433563,17.24676514,1.793038
25.73773956,14.51133442,16.84279823,1.299206
24.79742432,14.53111935,16.389431,0.852818
23.87127113,14.55743504,15.88153839,0.455652
22.94752502,14.51886082,15.29578686,0.090416
21.98901558,14.53366756,14.54482841,-0.18736
21.1162281,14.57777309,13.72367668,-0.353311
20.18544197,14.53412628,12.80854988,-0.529477
19.28103828,14.45789528,11.77128315,-0.632294
18.34720612,14.48579884,10.55056095,-0.600789
17.41704369,14.45250893,9.54865646,-0.653632
16.268507,14.28860569,8.6283226,-0.872551
15.14713764,14.17759705,7.6513443,-0.907655
14.17420006,14.20694351,6.88133717,-0.855223
13.08811092,14.22420502,6.15159416,-0.822845
12.12429619,14.21850395,5.59354687,-0.821533
11.10588932,14.29827309,5.12725067,-0.808449
10.10203171,14.2589283,4.67648506,-0.821586
9.01740646,14.28965092,4.26714706,-0.799274
8.00800037,14.37330151,3.90177536,-0.73409
7.05102921,14.42749786,3.5988903,-0.680222
6.03569698,14.41068745,3.31621361,-0.644983
5.01662016,14.39689159,3.07540894,-0.617036
4.00710154,14.47934723,2.97719002,-0.639055
2.99487448,14.57385254,2.8821907,-0.614097
2.00455618,14.66609955,2.82249641,-0.591749
0.98029852,14.62947941,2.76812553,-0.601321
41.43186951,13.5011673,20.77223587,13.605277
40.41648102,13.4982481,20.64350128,12.638937
39.41040039,13.49555016,20.48544884,11.680708
38.41386795,13.49173546,20.30705452,10.731744
37.42361069,13.48920536,20.11442947,9.791103
36.43645477,13.48592949,19.90998077,8.856666
35.45211411,13.4839592,19.69448662,7.935746
34.46909332,13.48257732,19.4669075,7.038752
33.48852539,13.48247147,19.22674751,6.161283
32.51097107,13.48374462,18.97374725,5.310027
31.5356102,13.4847765,18.70569038,4.499375
30.56359673,13.48681259,18.42069435,3.759734
29.59506416,13.49155998,18.11623383,3.142298
28.63294411,13.49663448,17.79006386,2.582947
27.67766953,13.50245857,17.44215965,2.040601
26.71660805,13.49890423,17.04767227,1.515017
25.77563667,13.50983143,16.59795761,1.042113
24.87135315,13.52982807,16.14075279,0.622436
23.89139557,13.53833485,15.55127525,0.213607
22.9887352,13.52749729,14.84577751,-0.084191
22.08101463,13.5259676,14.03103828,-0.313675
21.16915131,13.4920063,13.08013916,-0.474778
20.28414536,13.4677372,12.04127026,-0.56555
19.34335518,13.45193291,10.8812542,-0.62794
18.35774803,13.35390282,9.70108795,-0.682097
17.29142952,13.27378559,8.72614765,-0.815944
16.1378727,13.13329124,7.70256329,-0.898297
15.12886238,13.12860012,6.86796951,-0.869496
14.06399155,13.16720581,6.09765053,-0.82381
13.10505486,13.20836735,5.52910614,-0.825511
12.04407024,13.260849,5.00176334,-0.819824
11.02088356,13.20842838,4.45046616,-0.787955
10.04084969,13.23645115,4.03869057,-0.764917
9.00359631,13.27398586,3.60735893,-0.696139
8.02944851,13.30032158,3.24802017,-0.624543
7.00859356,13.35603619,3.00156021,-0.628361
5.97527313,13.44353962,2.77589607,-0.586541
4.9984436,13.53372669,2.6132164,-0.560168
3.97896671,13.50584507,2.46158028,-0.570843
2.96261668,13.49317837,2.32621956,-0.561718
1.97857368,13.48717976,2.23884964,-0.552458
41.42892456,12.50216007,20.76947403,13.30047
40.41207504,12.49905205,20.63377953,12.317399
39.40803146,12.49526405,20.46858597,11.352585
38.41210556,12.492589,20.28279877,10.403604
37.42240906,12.48930836,20.081604,9.463482
36.43768692,12.48694611,19.86860275,8.532514
35.45468903,12.48448467,19.64393425,7.609806
34.47361374,12.48387623,19.40672684,6.70018
33.4953804,12.48336029,19.15649223,5.810522
32.5201416,12.4829855,18.89217758,4.960696
31.54700279,12.48463726,18.61194229,4.174508
30.5784359,12.48792362,18.31406403,3.479175
29.61335182,12.49171066,17.99523735,2.887911
28.65364647,12.49569607,17.65121651,2.318918
27.70049667,12.49508572,17.27336502,1.77596
26.75309753,12.50419235,16.84979248,1.27816
25.82397842,12.52910423,16.3868885,0.82373
24.88917923,12.50351048,15.83007813,0.395918
23.97147751,12.47135735,15.1672678,0.03605
23.04690361,12.50362682,14.4031868,-0.230893
22.13305283,12.48156929,13.47897816,-0.427331
21.23521233,12.4808445,12.41682148,-0.529512
20.35919952,12.40775013,11.22276115,-0.566659
19.3519249,12.30412197,10.12312603,-0.725395
18.2151165,12.25643158,8.9156332,-0.80919
17.2115593,12.13855553,7.89216995,-0.835452
16.09324455,12.07030296,6.90189552,-0.832247
15.11913872,12.11428261,6.22280312,-0.851218
13.97264004,12.18028927,5.48241138,-0.833281
13.08418083,12.14823055,4.91981697,-0.790429
11.97640419,12.17119408,4.37537575,-0.797618
10.99613953,12.25011253,3.90072632,-0.728609
9.99363995,12.26002216,3.46476746,-0.677256
8.9833107,12.31050873,3.07561302,-0.617463
8.00575733,12.39048862,2.78697205,-0.580225
6.96519709,12.39056587,2.53141594,-0.577562
5.96089125,12.39058018,2.32739449,-0.590051
4.92174435,12.36515808,2.09451294,-0.53352
3.97768569,12.44802189,2.00629616,-0.538291
2.89339423,12.54637432,1.92158127,-0.529328
1.92811394,12.58674431,1.80667305,-0.474693
41.42619324,11.50143242,20.76676369,13.029411
40.40811539,11.499053,20.62458038,12.041715
39.40600586,11.49610043,20.4524765,11.068663
38.40987778,11.49266243,20.25904465,10.102267
37.42258453,11.49038696,20.05029678,9.148142
36.43849564,11.48746586,19.82883644,8.208912
35.45735168,11.48564816,19.59529495,7.289408
34.47829056,11.48456001,19.34867477,6.385607
33.50293732,11.48364925,19.08858871,5.505963
32.52832794,11.48474693,18.81270599,4.66276
31.5603981,11.48514271,18.52111244,3.886574
30.5920372,11.486763,18.20929337,3.221046
29.63367462,11.48895645,17.87661552,2.641008
28.6734581,11.49147701,17.51103973,2.082545
27.7226963,11.491992,17.09976006,1.555027
26.80281448,11.50895786,16.67114067,1.066235
25.85556221,11.4979248,16.16110229,0.591179
24.92023849,11.50301456,15.52962303,0.210422
24.01401901,11.51819992,14.81088638,-0.098074
23.10474396,11.46404457,13.96915817,-0.366208
22.16437912,11.42574787,12.86188698,-0.51131
21.35576439,11.36946201,11.6859417,-0.510332
20.35868263,11.34393787,10.55408287,-0.654296
19.27509117,11.20262241,9.25664997,-0.749159
18.25033188,11.04210472,8.1294632,-0.794432
17.05752182,11.08605766,7.18785191,-0.877018
16.04181862,11.08402729,6.28615475,-0.820565
15.06692028,11.05804348,5.5833292,-0.808116
13.9726944,11.10049057,4.90920258,-0.790146
13.02043438,11.17822933,4.39529228,-0.764129
11.95232677,11.20191002,3.85861588,-0.736298
10.98437977,11.22098351,3.42483139,-0.701134
9.88929558,11.26914501,2.96198082,-0.637163
9.01955986,11.305233,2.66428566,-0.591336
7.87988806,11.30249023,2.35494804,-0.602073
6.94272661,11.31624413,2.08633423,-0.537259
5.90115356,11.3693819,1.89637756,-0.529911
4.91129589,11.47578335,1.73492813,-0.499052
3.91534233,11.43840599,1.59487534,-0.487555
2.91095829,11.42162228,1.50150108,-0.487958
1.86940992,11.49551964,1.42854118,-0.460361
41.42208099,10.50189686,20.76352692,12.75773
40.40571213,10.4991045,20.61560822,11.770783
39.40303421,10.49586773,20.43688011,10.796797
38.40935898,10.49397087,20.236866,9.833119
37.42185211,10.49056149,20.02044106,8.878138
36.43956375,10.4887104,19.79091454,7.934162
35.46032715,10.48620892,19.54881287,7.002017
34.48334503,10.4855032,19.2934227,6.087324
33.50867081,10.48526573,19.02300453,5.203536
32.53953171,10.48509693,18.73799133,4.379346
31.56986618,10.48599529,18.43327904,3.632477
30.60951042,10.48635006,18.10895157,3.011229
29.64890289,10.4872942,17.75824356,2.426485
28.69890404,10.49065113,17.37740898,1.866857
27.75120163,10.50444031,16.94791031,1.342258
26.83289146,10.48223686,16.47510529,0.861142
25.8901329,10.48728848,15.91747475,0.417836
24.96916389,10.48205185,15.26335144,0.040313
24.03365135,10.4470129,14.39995384,-0.247545
23.16874695,10.38629723,13.43393612,-0.424017
22.26275635,10.37243176,12.26758099,-0.505331
21.35429382,10.37887955,11.07523441,-0.567432
20.34223938,10.18091583,9.81089973,-0.707918
19.21064758,10.14534569,8.56295681,-0.774879
18.11244392,10.11044598,7.53297234,-0.831187
17.03284264,9.96663284,6.5306921,-0.837935
16.02007103,10.06598854,5.78135586,-0.808925
14.94897938,10.13880634,5.05084324,-0.772992
14.01924706,10.14697361,4.48735619,-0.762161
12.91033649,10.15085697,3.89670563,-0.749652
11.95316887,10.15270615,3.37447357,-0.663475
10.91604614,10.19988918,2.96088028,-0.657054
9.89560986,10.25817776,2.56666756,-0.593042
8.92234135,10.25934315,2.26658249,-0.591194
7.8610096,10.29774284,1.98058128,-0.557279
6.87596607,10.35873127,1.71290588,-0.497293
5.90852833,10.35321999,1.5308876,-0.476998
4.86397839,10.35104275,1.38414574,-0.480613
3.87403035,10.44455051,1.27648163,-0.466696
2.86900926,10.50598812,1.20155334,-0.459813
1.87874913,10.54190254,1.16371155,-0.464754
41.41916275,9.50134087,20.76047134,12.527573
40.4029274,9.49944401,20.60703659,11.526466
39.40103149,9.49695778,20.4223423,10.539406
38.40789795,9.49368477,20.21579933,9.566293
37.42179871,9.4918766,19.99230957,8.609888
36.44099426,9.4889555,19.75520325,7.668228
35.46329117,9.48795319,19.5051918,6.740444
34.48821259,9.48627186,19.24131203,5.8321
33.51631927,9.48631954,18.96245575,4.956175
32.54663086,9.48586941,18.66581726,4.133409
31.58333206,9.48542118,18.35093689,3.40946
30.62156296,9.4858675,18.01262093,2.798258
29.66690636,9.48497868,17.64405441,2.223893
28.72449112,9.484519,17.24581528,1.678501
27.78650475,9.48833084,16.81217957,1.156571
26.8331337,9.49453545,16.27122688,0.679741
25.95418739,9.45345211,15.68431187,0.27384
24.99562645,9.4163065,14.88027859,-0.071424
24.13451195,9.4257021,14.00854874,-0.285937
23.2205925,9.37665653,12.92092323,-0.445558
22.36124039,9.35534096,11.68407631,-0.474361
21.37387848,9.20110321,10.44059277,-0.631132
20.25048447,9.1445303,9.14600754,-0.740823
19.15416718,9.00393295,7.97567272,-0.810516
17.98247147,8.96691704,6.92973995,-0.869774
17.00105286,9.09227085,6.02381516,-0.759956
15.9978447,9.03597736,5.33059502,-0.808312
14.89135551,9.08615875,4.59241486,-0.77515
13.98861599,9.0920763,4.0553093,-0.736985
12.85494709,9.15820885,3.46431541,-0.694034
11.93308067,9.2187233,3.02681351,-0.654068
10.84853458,9.22478294,2.58407402,-0.612964
9.88240433,9.22414112,2.21717072,-0.571532
8.83426189,9.25115967,1.88997078,-0.530679
7.86227512,9.2561264,1.61373901,-0.488626
6.85507679,9.32050514,1.42121124,-0.476374
5.84329653,9.38090324,1.26236153,-0.479375
4.86437178,9.44373322,1.15250206,-0.474102
3.82992482,9.4489212,1.06038666,-0.484746
2.85736513,9.46273899,1.0086441,-0.506817
1.82085335,9.49602222,0.97929573,-0.528962
41.41600037,8.50237179,20.75770569,12.315045
40.40055847,8.4996376,20.59923935,11.314194
39.39897156,8.49697304,20.40887451,10.326573
38.4070282,8.49483109,20.19612503,9.350234
37.4217186,8.49227238,19.96600151,8.384345
36.44309616,8.4905386,19.72226715,7.432278
35.46577835,8.48836231,19.46444702,6.493204
34.49333954,8.48766327,19.1929493,5.580936
33.52210999,8.48646545,18.90531921,4.712354
32.55619049,8.48727322,18.60017014,3.912228
31.59313583,8.48601246,18.27372169,3.225864
30.63559723,8.48458672,17.92208862,2.628863
29.68486023,8.48663139,17.53981972,2.05442
28.74153519,8.48373318,17.11640739,1.506676
27.81742096,8.46864796,16.65503693,0.993139
26.86954689,8.45351696,16.07341385,0.531521
25.97653389,8.45510387,15.41822052,0.157558
25.05550766,8.45421028,14.59490013,-0.147256
24.17751884,8.38429642,13.62303543,-0.356702
23.27481651,8.35822582,12.45888615,-0.470947
22.33081818,8.27918625,11.15173435,-0.547049
21.35790634,8.20403862,9.93910599,-0.668784
20.16918945,8.05425549,8.56567669,-0.77809
19.036026,8.01007462,7.42630863,-0.830334
18.03898239,7.9914279,6.42555332,-0.768058
16.98081589,8.00708294,5.6172657,-0.778878
15.92423248,8.05730438,4.91315365,-0.791853
14.89579964,8.10178185,4.24971771,-0.752466
13.88171005,8.14113617,3.65534782,-0.712184
12.89012623,8.15509796,3.15976906,-0.684188
11.81695175,8.1541338,2.68350601,-0.656041
10.81715965,8.17172241,2.23508072,-0.57436
9.84286594,8.21630001,1.8927021,-0.521811
8.80044365,8.2490921,1.58157921,-0.481868
7.84111834,8.32406616,1.35879135,-0.456763
6.82761908,8.33899975,1.2061348,-0.489734
5.81263304,8.36633396,1.0818634,-0.507233
4.81484032,8.37590313,0.9887867,-0.54078
3.80257607,8.4352541,0.9311676,-0.554607
2.80668664,8.49925423,0.90095139,-0.575775
1.79607487,8.53270054,0.88007545,-0.594457
41.41394043,7.50230551,20.75577354,12.111812
40.3977356,7.50028038,20.59235191,11.104203
39.39740753,7.49783707,20.39660454,10.115076
38.4057045,7.4951272,20.1779747,9.138797
37.42277145,7.49334097,19.94222832,8.175853
36.44395828,7.49132061,19.69195175,7.224783
35.46927643,7.49047327,19.42778969,6.291139
34.49655151,7.4882803,19.1477375,5.381457
33.52978134,7.4876585,18.85251427,4.516378
32.56458282,7.48607588,18.5393486,3.722667
31.60333252,7.48603868,18.20304108,3.058845
30.64862061,7.4844718,17.83931541,2.460045
29.70150185,7.48233747,17.44423294,1.889744
28.7605381,7.47823715,17.00037956,1.35447
27.83409882,7.46382189,16.48610497,0.865976
26.92168999,7.46950626,15.8993969,0.431853
