//X,Y,Z,C2M_signed_distances
-8.07982445,-20.68833351,9.13211155,-0.741317
-9.09258938,-20.7573452,9.58427048,-0.652144
-10.16516113,-20.8550148,10.15726089,-0.527754
-11.09025574,-20.86385345,10.7749176,-0.503614
-12.09703159,-20.8697834,11.59766102,-0.531323
-13.05127525,-20.85435486,12.31928635,-0.498002
-13.98200417,-20.81277466,13.06155777,-0.499402
-14.93433857,-20.76729393,13.76155472,-0.4333
-15.89684391,-20.70666695,14.34949303,-0.305107
-16.82515907,-20.68436813,14.91532898,-0.125489
-17.81746864,-20.68393326,15.44317722,0.132798
-18.79613113,-20.66703606,15.85033226,0.455486
-19.74895859,-20.6499176,16.22135925,0.802335
-20.72032928,-20.62277603,16.56791115,1.169371
-21.6709404,-20.58803749,16.88341331,1.56919
-22.63471603,-20.55475044,17.19667435,1.979341
-23.61142921,-20.54383278,17.49459267,2.43263
-24.57854652,-20.52857208,17.7699337,2.908998
-25.55946541,-20.5156517,18.0348053,3.401173
-26.5369854,-20.50232506,18.28128815,3.934167
-27.51981735,-20.49366379,18.51707268,4.572519
-28.50408363,-20.4873848,18.74050331,5.267232
-29.49002457,-20.48284531,18.95273209,5.998455
-30.4788475,-20.47912216,19.1541481,6.780858
-31.468853,-20.47722626,19.34455299,7.586605
-32.45999146,-20.47604752,19.52482986,8.403367
-33.45274734,-20.47628212,19.69548035,9.228964
-34.44596481,-20.47675133,19.85677528,10.076992
-35.44100952,-20.47872543,20.00932312,10.943646
-36.43598938,-20.48066521,20.15324211,11.812232
-37.43365097,-20.48393822,20.28874016,12.685112
-38.43239975,-20.48688698,20.41467285,13.560162
-39.43545151,-20.49086571,20.5294838,14.451799
-40.44336319,-20.49489403,20.6286068,15.360705
-41.45912552,-20.49791527,20.70580673,16.277727
41.45979309,-21.49778366,20.70439911,16.7178
40.44649506,-21.49421883,20.63057899,15.816788
39.43946838,-21.48968124,20.53783798,14.932689
38.43743896,-21.48561668,20.43196487,14.054859
37.4365654,-21.48146439,20.31498146,13.178168
36.43920517,-21.47829056,20.18898201,12.305578
35.44246292,-21.47588539,20.05505562,11.441496
34.44715118,-21.47423363,19.91345596,10.600988
33.45196915,-21.47330284,19.76396179,9.767263
32.45793533,-21.47372246,19.60622406,8.93856
31.46401787,-21.47540283,19.43978691,8.11562
30.47138786,-21.47835922,19.26445007,7.323344
29.4789505,-21.48335648,19.07982254,6.554823
28.48698807,-21.49036026,18.88456917,5.803292
27.49775124,-21.49887276,18.67956352,5.079295
26.50744247,-21.51021194,18.46393776,4.423047
25.51877403,-21.52431679,18.23609352,3.827917
24.53247833,-21.54440117,17.99919128,3.309495
23.54245377,-21.56698036,17.74620056,2.837493
22.55952454,-21.58916283,17.48213768,2.382832
21.56505203,-21.63070297,17.19973946,1.946867
20.58122635,-21.66916466,16.8916111,1.558711
19.61274338,-21.71133995,16.5909729,1.180523
18.61320305,-21.77618027,16.2911129,0.823845
17.59952927,-21.82689095,15.93653202,0.493792
16.60628319,-21.86263466,15.56040001,0.198303
15.5635643,-21.89878845,15.13370895,-0.075977
14.5250845,-21.93975067,14.59976768,-0.258651
13.5337429,-22.0110817,14.00738239,-0.352305
12.55496502,-22.08390808,13.42848969,-0.406673
11.4966507,-22.17163849,12.78049278,-0.429788
10.51533413,-22.22196007,12.16389656,-0.43109
9.43463707,-22.31318665,11.53148842,-0.39923
8.41875553,-22.31926155,10.91564655,-0.394249
7.4203229,-22.20618629,10.43094444,-0.497713
6.25303984,-22.24382401,9.98222923,-0.509202
5.30648088,-22.18570328,9.53525829,-0.497905
4.20844412,-22.08538246,9.1746769,-0.548427
3.18859601,-22.10136986,8.97087193,-0.551069
2.22850132,-21.90869904,8.71707153,-0.631534
1.03654754,-21.82184601,8.59965038,-0.697307
0.15678908,-21.82933998,8.59097481,-0.709651
-0.96704143,-21.92334938,8.70823097,-0.693117
-1.87480652,-21.84037399,8.76195621,-0.738423
-3.04962111,-21.68856621,8.59122181,-0.648388
-3.9294467,-21.78285217,8.78146648,-0.587869
-4.94896173,-21.87207222,9.30823803,-0.676595
-5.96615076,-21.70693779,9.52204895,-0.736578
-7.08318901,-21.75535774,9.84724712,-0.620682
-8.01374531,-21.88166618,10.37552452,-0.559136
-9.10269165,-21.90992355,10.94973469,-0.52206
-10.04273701,-21.95714378,11.51072693,-0.456817
-11.02053833,-21.90948296,12.16507435,-0.487222
-11.99702835,-21.8694725,12.82541656,-0.478256
-12.93828487,-21.83420563,13.42983913,-0.433095
-13.87355232,-21.77204323,14.0336628,-0.378866
-14.85032845,-21.7152462,14.58937645,-0.262271
-15.78849125,-21.71980095,15.09727669,-0.063203
-16.80270958,-21.71043015,15.55488777,0.197906
-17.75734138,-21.69633484,15.91774178,0.508326
-18.73359871,-21.66054726,16.26638412,0.830381
-19.70144653,-21.62722015,16.58443451,1.185982
-20.6654892,-21.59440422,16.88735008,1.565735
-21.62291908,-21.56434059,17.18370247,1.948802
-22.60808563,-21.553442,17.47339058,2.397125
-23.5779686,-21.53180504,17.73309517,2.846176
-24.56054115,-21.5163784,17.98553848,3.319749
-25.53839493,-21.50692368,18.22389603,3.837043
-26.52175903,-21.49755859,18.45339966,4.429432
-27.50669479,-21.48997116,18.67115593,5.083085
-28.49445915,-21.48430061,18.87787437,5.806963
-29.48197556,-21.4797287,19.07450676,6.555855
-30.47314072,-21.47681808,19.2620182,7.324084
-31.46434021,-21.47525787,19.43941498,8.115835
-32.45728683,-21.47472763,19.60789108,8.938488
-33.45095444,-21.47491455,19.7674675,9.767202
-34.44565201,-21.47615623,19.9186554,10.600732
-35.44120407,-21.47774124,20.06157303,11.441421
-36.43782425,-21.48044205,20.19650841,12.30555
-37.43613434,-21.48350143,20.32305527,13.178988
-38.43561935,-21.48681068,20.44062614,14.054131
-39.44037628,-21.49106407,20.54675865,14.934482
-40.44652939,-21.49443626,20.6382637,15.81723
-41.4635849,-21.49818039,20.70927811,16.721564
41.46384048,-22.49785995,20.70758057,17.196097
40.45022964,-22.49382591,20.64001656,16.309242
39.44419098,-22.48988152,20.55479813,15.428444
38.44077682,-22.48549461,20.45702171,14.549501
37.44016266,-22.48156357,20.34885788,13.67622
36.44071579,-22.47796631,20.23146439,12.821827
35.44384384,-22.4754734,20.10638428,11.981717
34.44714355,-22.47348022,19.97405624,11.143198
33.45179749,-22.47278976,19.8346138,10.308263
32.45610428,-22.47232628,19.68754959,9.481908
31.46144104,-22.47337532,19.532444,8.686052
30.46731567,-22.4759388,19.36916161,7.899489
29.47400475,-22.47966194,19.1975174,7.121759
28.48052216,-22.4852829,19.01652718,6.364402
27.48953629,-22.49279785,18.82740402,5.654185
26.49741364,-22.50271225,18.62861824,4.968472
25.50785255,-22.51461029,18.42102814,4.322079
24.5154953,-22.53014755,18.2012825,3.764702
23.52972794,-22.54796028,17.97342682,3.279928
22.53829193,-22.57430458,17.73619461,2.811052
21.54363441,-22.60140991,17.47486877,2.385918
20.56939507,-22.63028145,17.21038246,1.977035
19.572752,-22.66988945,16.93966675,1.584614
18.58035469,-22.72247124,16.64730263,1.234423
17.59691238,-22.77444649,16.35085869,0.903784
16.59313011,-22.81960869,16.04899597,0.586841
15.57009411,-22.8647213,15.70918655,0.297284
14.56304932,-22.88513374,15.33463669,0.041616
13.50281906,-22.95140076,14.87212372,-0.133715
12.54761505,-22.99545288,14.40627289,-0.255776
11.47618484,-23.08178139,13.86823654,-0.321134
10.53575706,-23.11177826,13.37906361,-0.389224
9.41769218,-23.19399071,12.79327965,-0.38241
8.4999609,-23.25678253,12.30840015,-0.3638
7.39355278,-23.2724762,11.88722134,-0.425302
6.35736799,-23.23376083,11.42758274,-0.462302
5.33129168,-23.22736549,11.04082012,-0.480303
4.25319815,-23.24631119,10.73471832,-0.479155
3.26164556,-23.15119743,10.36507034,-0.492776
2.17856097,-23.21671867,10.25823784,-0.484648
1.16897476,-23.17578697,10.15976906,-0.518628
0.12622021,-22.96708298,10.03912544,-0.652842
-0.8703739,-22.87807083,9.82564259,-0.594331
-1.99313021,-22.97337341,9.95965099,-0.528916
-2.8365016,-23.08145714,10.28769588,-0.555682
-3.96520376,-22.92616081,10.43830681,-0.626845
-4.96028805,-22.91873169,10.55450535,-0.53608
-5.91825056,-23.00102997,11.02766705,-0.544611
-7.00137949,-22.99383354,11.47067165,-0.527691
-7.96920013,-22.96742821,11.8203907,-0.484452
-9.00716209,-22.95878983,12.31189537,-0.44664
-9.91341972,-22.92476273,12.78725624,-0.431254
-10.93100739,-22.87895584,13.37135983,-0.422733
-11.84785175,-22.83447456,13.87170792,-0.371343
-12.8331461,-22.76779747,14.40093231,-0.304965
-13.78857708,-22.76245117,14.8788023,-0.152975
-14.78414059,-22.76879311,15.32299232,0.066842
-15.75167465,-22.73158836,15.68631554,0.301766
-16.73866844,-22.70271683,16.03206444,0.591042
-17.71146584,-22.67327881,16.3377018,0.898623
-18.6719017,-22.64370918,16.63833046,1.240374
-19.64793205,-22.60424232,16.92983246,1.590183
-20.61281586,-22.57144356,17.20669556,1.969382
-21.60177803,-22.55817604,17.47741508,2.392749
-22.57467079,-22.53860664,17.72230148,2.81828
-23.55431938,-22.52211571,17.96378517,3.285295
-24.53989029,-22.51076126,18.19378471,3.772218
-25.52360916,-22.49944496,18.41048241,4.327928
-26.5084877,-22.49213791,18.619524,4.972658
-27.49663925,-22.48604012,18.8201828,5.656792
-28.48506546,-22.48031807,19.01148796,6.365551
-29.47639847,-22.47689056,19.19418144,7.122419
-30.46769905,-22.47478104,19.36785698,7.899217
-31.46152496,-22.47340202,19.53313065,8.686099
-32.45491409,-22.4732666,19.68981934,9.481398
-33.44993973,-22.47388458,19.83885193,10.30723
-34.44563293,-22.47506142,19.9799614,11.142777
-35.44223022,-22.47727203,20.1134491,11.981404
-36.44002151,-22.48000526,20.23918343,12.822493
-37.43868637,-22.48322487,20.35696793,13.676005
-38.44019699,-22.48711586,20.46581841,14.550071
-39.44403839,-22.49082756,20.56338882,15.429087
-40.45074081,-22.49466515,20.64785957,16.31041
-41.46728897,-22.49818993,20.71234512,17.199457
41.4677887,-23.49795341,20.71056175,17.690548
40.45438766,-23.49394798,20.64945602,16.804171
39.4482193,-23.48964119,20.57137299,15.924324
38.44498444,-23.48570251,20.48168182,15.059704
37.44314575,-23.48148727,20.38193321,14.211538
36.44353485,-23.47799683,20.27337456,13.367866
35.44497681,-23.47494125,20.15700531,12.525841
34.44813538,-23.47298431,20.03388786,11.687177
33.45135117,-23.47141647,19.90401649,10.868169
32.45539474,-23.47143936,19.76731491,10.068244
31.45960045,-23.47171783,19.62340546,9.271308
30.4641571,-23.47306061,19.47176552,8.479141
29.46992493,-23.47638512,19.31272125,7.712976
28.47576141,-23.48024368,19.14608765,6.973529
27.48190117,-23.48710251,18.97110939,6.247269
26.48966408,-23.49549294,18.78841591,5.542283
25.49735832,-23.50608635,18.59795761,4.89611
24.50531578,-23.51776505,18.39866257,4.287036
23.51480675,-23.5340271,18.19172859,3.735431
22.51996422,-23.55578804,17.97120476,3.280885
21.53515434,-23.57648087,17.74271393,2.841756
20.54308701,-23.60318184,17.50798607,2.419495
19.55129051,-23.63968277,17.26232529,2.034439
18.55444527,-23.67730904,16.99581718,1.663322
17.57821655,-23.71651649,16.73875237,1.33028
16.56429482,-23.7705307,16.46970558,1.000866
15.5759306,-23.82598114,16.19114304,0.725263
14.56507778,-23.86937332,15.90523338,0.442539
13.54128838,-23.88276482,15.55538464,0.205534
12.51994991,-23.94528008,15.18814087,0.026364
11.52447891,-23.971138,14.78739452,-0.112917
10.50150776,-24.01682091,14.39895821,-0.238217
9.46879101,-24.07338715,13.99918365,-0.315213
8.45528698,-24.11603165,13.56672573,-0.353293
7.42031622,-24.15671921,13.15266609,-0.378075
6.41191244,-24.16585541,12.82596684,-0.427956
5.32396698,-24.20533752,12.4732914,-0.432377
4.35716677,-24.19956017,12.14892864,-0.419493
3.26869416,-24.22120476,12.00886822,-0.472558
2.25286937,-24.15058136,11.7236433,-0.482156
1.22896683,-24.11301804,11.50376701,-0.452982
0.20613335,-24.13720512,11.57192421,-0.500806
-0.87248349,-24.26273727,11.75415325,-0.475642
-1.78818583,-24.10168076,11.68355942,-0.528817
-2.94352317,-24.04818916,11.65645981,-0.471591
-3.77889419,-24.07955742,11.94490242,-0.49098
-4.93087149,-24.03840256,12.2073679,-0.494196
-5.8774662,-24.03674889,12.39104652,-0.418173
-6.90997267,-24.00419617,12.72023487,-0.391254
-7.863379,-23.96304512,13.14035511,-0.416826
-8.84637356,-23.90118599,13.55470753,-0.404556
-9.82767677,-23.87473297,13.97328281,-0.348379
-10.80251408,-23.83788109,14.39293194,-0.268808
-11.77686787,-23.8116951,14.80369949,-0.15467
-12.74668598,-23.8065834,15.21010876,0.003728
-13.76342487,-23.78482819,15.55183411,0.225522
-14.71433926,-23.7442627,15.84728909,0.454458
-15.70574665,-23.71324348,16.17025375,0.715874
-16.67513657,-23.6830883,16.45742989,1.004999
-17.65761948,-23.63894463,16.73076248,1.322787
-18.62776947,-23.61052132,16.99174309,1.659581
-19.60248184,-23.58835793,17.25318718,2.035363
-20.5845108,-23.56954193,17.50690651,2.4219
-21.56842041,-23.54296494,17.74165535,2.841601
-22.55109215,-23.52358627,17.96635437,3.281912
-23.53774834,-23.51491165,18.18333435,3.741877
-24.52141953,-23.5038414,18.39010239,4.292263
-25.51028442,-23.49402618,18.59022141,4.899428
-26.49845505,-23.48686409,18.78112221,5.544687
-27.48704147,-23.48053932,18.96506882,6.248017
-28.47881126,-23.47722054,19.14216232,6.974415
-29.4709549,-23.47440529,19.31079865,7.712673
-30.46431923,-23.4723053,19.471735,8.478827
-31.45869064,-23.47179413,19.62502861,9.270556
-32.45376968,-23.4718895,19.77070999,10.067125
-33.44937515,-23.47267914,19.90923882,10.867278
-34.4463501,-23.47451973,20.04059029,11.686552
-35.4438591,-23.47677231,20.16454124,12.525994
-36.44241333,-23.47981644,20.28118324,13.368075
-37.44212723,-23.48326874,20.39013863,14.211872
-38.44445038,-23.48713303,20.49008942,15.060279
-39.44785309,-23.49080467,20.57965279,15.924889
-40.45526123,-23.49490738,20.65681267,16.805689
-41.47061157,-23.49854851,20.71492767,17.693474
41.47101974,-24.49784279,20.71327591,18.184378
40.45910263,-24.49411392,20.65852928,17.308432
39.45235443,-24.48975945,20.58779335,16.451613
38.44877243,-24.48562813,20.50566673,15.604288
37.44695282,-24.48179626,20.41429901,14.758535
36.44618607,-24.47783089,20.31442451,13.913709
35.44700241,-24.47470665,20.20688629,13.077167
34.44920731,-24.47234154,20.0927639,12.265021
33.45187378,-24.47071266,19.97249413,11.460435
32.45468521,-24.46960258,19.84562683,10.657675
31.45843124,-24.46995163,19.71234322,9.85981
30.46218872,-24.47098923,19.57234764,9.091371
29.46669006,-24.47269058,19.42554092,8.33747
28.47173882,-24.47682571,19.27216339,7.590959
27.47644424,-24.48138237,19.11115837,6.859206
26.48282814,-24.48799133,18.94331741,6.172775
25.48885918,-24.49705315,18.76860619,5.503646
24.4971199,-24.50814438,18.58821106,4.86147
23.50108528,-24.52251434,18.39812279,4.288249
22.51108932,-24.53591919,18.19935226,3.767213
21.51945114,-24.55497169,17.9956398,3.312387
20.52548409,-24.5814476,17.78317451,2.902054
19.53241348,-24.60791016,17.55877113,2.498516
18.54328728,-24.63468552,17.33042336,2.130083
17.54579926,-24.67508316,17.09805489,1.779007
16.55134201,-24.717556,16.85703087,1.457429
15.55097675,-24.76086998,16.60519791,1.160738
14.56649303,-24.81522369,16.36018181,0.896252
13.5598774,-24.8555851,16.11883545,0.633764
12.51833344,-24.8839817,15.81006241,0.410721
11.55025768,-24.92779541,15.54045391,0.227202
10.48213291,-24.95864105,15.22515869,0.055864
9.50586224,-24.97873116,14.91029072,-0.075875
8.44501209,-25.02227592,14.59579086,-0.173282
7.47064877,-25.05724144,14.29843044,-0.243507
6.41732979,-25.08275414,13.9903717,-0.292355
5.40823936,-25.08499336,13.72183418,-0.348165
4.36203671,-25.1009903,13.51657391,-0.393792
3.32772446,-25.11462975,13.25798321,-0.377754
2.35942054,-25.13260269,13.19465828,-0.424445
1.26297486,-25.16875839,13.16859055,-0.441371
0.2569221,-25.13318253,13.01914597,-0.425155
-0.7398628,-25.03969765,12.80233955,-0.375098
-1.78950202,-25.0714817,13.07147026,-0.445326
-2.75906515,-25.11289597,13.23835373,-0.4282
-3.774266,-25.02880096,13.28028488,-0.403602
-4.75629759,-24.9901638,13.45184422,-0.395881
-5.80426645,-24.9757309,13.71878242,-0.358862
-6.75767088,-24.93629837,13.99427032,-0.343117
-7.79172993,-24.90459633,14.27597713,-0.273045
-8.74911499,-24.90876007,14.58919525,-0.179749
-9.74939823,-24.8664608,14.90418816,-0.087759
-10.71905041,-24.84066963,15.21903992,0.039274
-11.71911716,-24.81398773,15.52898598,0.204857
-12.70817757,-24.78164864,15.80144501,0.403758
-13.69823742,-24.7555542,16.07201195,0.640563
-14.65920734,-24.7277317,16.33773613,0.879976
-15.66154766,-24.69283867,16.60029411,1.165861
-16.61803818,-24.65127945,16.84257889,1.448635
-17.60668182,-24.61672783,17.09831619,1.770647
-18.59302521,-24.58782768,17.3326416,2.122718
-19.57320595,-24.5657959,17.55779648,2.494906
-20.56051636,-24.54714775,17.77749252,2.902446
-21.54095459,-24.53385162,17.9914856,3.312763
-22.53282356,-24.51965523,18.19856071,3.770274
-23.52086258,-24.50426865,18.39179993,4.290865
-24.5089283,-24.49497604,18.57958603,4.863066
-25.49824524,-24.4884758,18.76186371,5.506089
-26.48931122,-24.48176956,18.93742371,6.174236
-27.48030281,-24.47753334,19.10658646,6.860053
-28.47340584,-24.47360611,19.26907158,7.590479
-29.46680641,-24.47140312,19.42455292,8.336806
-30.46178246,-24.47052383,19.57336235,9.090714
-31.45694923,-24.47018051,19.71504021,9.858692
-32.45302582,-24.47065163,19.85009384,10.656897
-33.44981003,-24.47207069,19.97842979,11.459565
-34.44752502,-24.47395897,20.09996414,12.264682
-35.44583511,-24.47660065,20.21459579,13.077408
-36.4452858,-24.47968864,20.32225037,13.914141
-37.44607544,-24.48346138,20.42222214,14.758927
-38.44823074,-24.48706627,20.51366806,15.604876
-39.45217133,-24.49094009,20.59545708,16.452376
-40.46010971,-24.49523544,20.6649456,17.31012
-41.47315216,-24.49862099,20.71699524,18.18676
41.47444153,-25.49780273,20.71599388,18.701288
40.46323776,-25.49419022,20.66724586,17.847845
39.45669556,-25.48998642,20.60363579,16.998549
38.4527092,-25.48581696,20.52915573,16.151121
37.45054626,-25.48184013,20.44574928,15.306027
36.44950867,-25.4781189,20.35451508,14.477299
35.44939423,-25.47448349,20.25586891,13.666599
34.45061493,-25.47181129,20.15062141,12.859035
33.45278931,-25.46982765,20.03962517,12.053342
32.45500946,-25.4686718,19.92270851,11.255371
31.45749664,-25.46796989,19.79951668,10.486097
30.46097183,-25.46851921,19.67046738,9.724589
29.4645443,-25.47031975,19.53559685,8.966738
28.46831894,-25.47246933,19.39435196,8.224708
27.47301865,-25.47649956,19.24731255,7.517982
26.47687912,-25.48203468,19.09354401,6.819186
25.48292351,-25.48931122,18.93390846,6.136135
24.48835373,-25.49843788,18.76877213,5.504595
23.49386978,-25.50752258,18.59639931,4.895624
22.50054359,-25.52225494,18.41871643,4.324612
21.50647926,-25.53970337,18.23425484,3.832898
20.51232529,-25.55629921,18.04098129,3.393998
19.51929283,-25.57859039,17.84180069,2.995461
18.52868652,-25.60609436,17.64282799,2.621362
17.52705574,-25.63311768,17.4324646,2.255629
16.53627396,-25.66498566,17.21884918,1.93404
15.53798389,-25.70019341,17.00205994,1.617311
14.54006958,-25.73871231,16.77800369,1.34578
13.54886246,-25.7949295,16.56389427,1.089462
12.54019451,-25.8376236,16.34157372,0.864129
11.5243721,-25.87092972,16.10154152,0.644803
10.53214359,-25.90795326,15.88256645,0.467749
9.49544621,-25.93585587,15.64830208,0.291896
8.49571991,-25.95051765,15.41065598,0.15475
7.44593763,-25.97595978,15.15602589,0.047878
6.47228765,-26.01795959,14.95461845,-0.024993
5.4307518,-26.03282356,14.76155758,-0.107903
4.4087553,-26.04265404,14.57430458,-0.163537
3.40753412,-26.03172302,14.44276524,-0.226807
2.33161855,-26.04585075,14.29143715,-0.235093
1.37319291,-26.03447723,14.17197609,-0.236317
0.36720932,-26.02960205,14.21240139,-0.295221
-0.6477229,-26.10193634,14.36700439,-0.306184
-1.7536813,-26.03107643,14.2736721,-0.274644
-2.66646028,-25.99236298,14.24239159,-0.224152
-3.67942381,-25.97511292,14.4104538,-0.221362
-4.70600653,-25.98263931,14.60064411,-0.184168
-5.69341564,-25.93923569,14.75417137,-0.131175
-6.68971014,-25.92111397,14.96051216,-0.065191
-7.7092638,-25.90789795,15.1852417,0.040352
-8.67987347,-25.85780525,15.37724018,0.145331
-9.68322182,-25.82986069,15.62903595,0.273764
-10.68953419,-25.82545662,15.86400986,0.460515
-11.65978527,-25.80626297,16.09003067,0.649852
-12.64989662,-25.76047707,16.32348251,0.852415
-13.63786983,-25.71419525,16.54499435,1.077258
-14.6226368,-25.67956161,16.76688004,1.341148
-15.60327721,-25.64284897,16.98708534,1.613944
-16.58735275,-25.61722374,17.2114296,1.927507
-17.57217598,-25.59657669,17.43270874,2.249469
-18.55951691,-25.57240105,17.64460564,2.613415
-19.54900551,-25.55057144,17.84625816,2.989198
-20.5374794,-25.53374672,18.04076195,3.393248
-21.52643394,-25.5178566,18.2294178,3.831575
-22.51568604,-25.50730324,18.41360664,4.32506
-23.50650597,-25.49816513,18.59186363,4.898697
-24.49845886,-25.48940659,18.76268387,5.506302
-25.48950577,-25.48250961,18.92752838,6.137095
-26.4812603,-25.47742271,19.08819008,6.819929
-27.47538185,-25.47327232,19.24326706,7.517899
-28.46883392,-25.47102737,19.39227295,8.22426
-29.46429825,-25.4692173,19.53545952,8.965851
-30.45965767,-25.46868324,19.67216873,9.723627
-31.45610046,-25.46889687,19.80293846,10.485553
-32.45296478,-25.46984291,19.92755508,11.254458
-33.4508934,-25.47145271,20.04588318,12.0528
-34.44900131,-25.47374725,20.15783119,12.858969
-35.4483757,-25.47637177,20.2634201,13.667042
-36.4487114,-25.48001289,20.36201477,14.477941
-37.44971848,-25.48339844,20.45326996,15.306418
-38.45231628,-25.48723984,20.5365963,16.151808
-39.45690536,-25.4912262,20.61046028,16.999642
-40.46443176,-25.49534988,20.67243385,17.849672
-41.4757309,-25.49840355,20.71899796,18.702814
41.47791672,-26.49791527,20.71862221,19.245854
40.46709442,-26.49427605,20.67566109,18.394016
39.46103668,-26.49021912,20.61886024,17.545466
38.45687103,-26.48615456,20.55190086,16.704424
37.4541893,-26.48205757,20.47640228,15.883267
36.4528656,-26.47824287,20.39338684,15.072476
35.45234299,-26.47476959,20.30360985,14.262643
34.45259857,-26.47139168,20.20733643,13.453761
33.45405579,-26.46930885,20.10534286,12.660691
32.45556259,-26.46744728,19.99790382,11.89077
31.4576416,-26.46659279,19.88485909,11.124218
30.46009254,-26.466465,19.76623535,10.359863
29.46310234,-26.46727943,19.64229965,9.615048
28.46628761,-26.46937943,19.51320076,8.897322
27.46985435,-26.47229004,19.37875366,8.184059
26.47345543,-26.47608376,19.23876762,7.479816
25.47764397,-26.48111534,19.09352493,6.819264
24.48178864,-26.48868561,18.94276047,6.172884
23.48754692,-26.49868965,18.78779411,5.543838
22.4923687,-26.50784683,18.62713051,4.970221
21.49659348,-26.5197258,18.4597683,4.425169
20.50296021,-26.53736115,18.2881012,3.931807
19.50744247,-26.55426788,18.11095238,3.513926
18.51401711,-26.5753746,17.93135452,3.123786
17.51771736,-26.5983696,17.7488327,2.770703
16.52046013,-26.62540817,17.56134605,2.429791
15.5270462,-26.65431213,17.37388229,2.118128
14.52308369,-26.68648148,17.17952538,1.826412
13.52475357,-26.71961403,16.9761982,1.566038
12.53215981,-26.76165771,16.7842617,1.331244
11.52615356,-26.80213737,16.59430122,1.114063
10.51834297,-26.84064674,16.4038105,0.918621
9.52270699,-26.87463379,16.22860336,0.745057
8.49328709,-26.91631699,16.0513916,0.591151
7.49854755,-26.9359436,15.8763752,0.463243
6.45842171,-26.94148636,15.68670654,0.34136
5.48448753,-26.9548645,15.5463829,0.25139
4.42107582,-26.98079491,15.40844059,0.182578
3.47181511,-26.99295616,15.32316971,0.121292
2.39318252,-26.98253632,15.23854446,0.060119
1.43644428,-26.99271011,15.19916916,0.032397
0.3454251,-27.00092125,15.15838242,0.027411
-0.59824741,-26.96658707,15.08848953,0.043192
-1.61623847,-26.97042274,15.15378952,0.042444
-2.5764246,-26.93066788,15.23400497,0.036377
-3.68734217,-26.93790817,15.33329678,0.097893
-4.62221956,-26.94231224,15.40723419,0.182033
-5.63449764,-26.91028214,15.56226063,0.235408
-6.64954853,-26.89409637,15.70750427,0.329906
-7.63373041,-26.87211037,15.85490704,0.453684
-8.62031746,-26.84676361,16.04502106,0.568745
-9.64199448,-26.82369804,16.2311058,0.734568
-10.62739182,-26.77283859,16.39180183,0.903831
-11.61687279,-26.72668266,16.57144547,1.093923
-12.60697079,-26.70688057,16.77047157,1.322044
-13.59042263,-26.68162537,16.96974564,1.562683
-14.57802773,-26.64490891,17.16733742,1.824139
-15.56390095,-26.61437225,17.36610031,2.107359
-16.56296349,-26.58845901,17.558918,2.424356
-17.54491043,-26.56892967,17.74452972,2.764549
-18.53899574,-26.55161095,17.93209839,3.119934
-19.52804565,-26.53646469,18.11265373,3.511235
-20.51900864,-26.5188961,18.28793335,3.927054
-21.51223755,-26.50842094,18.45823097,4.426952
-22.50358009,-26.49806595,18.62207031,4.971298
-23.49605751,-26.48947144,18.7820797,5.543898
-24.48926353,-26.48289299,18.93736076,6.174703
-25.48212242,-26.47686577,19.08778381,6.820005
-26.47612953,-26.472826,19.23398209,7.479893
-27.47079086,-26.47033501,19.37539864,8.183658
-28.46628189,-26.46801758,19.51158333,8.896474
-29.46206093,-26.46748161,19.64258385,9.614416
-30.45866394,-26.46711922,19.7682209,10.359141
-31.45576477,-26.46768761,19.88831329,11.123443
-32.45374298,-26.46915817,20.00274086,11.890468
-33.45203018,-26.47110558,20.11133957,12.660299
-34.45125198,-26.4733429,20.21412659,13.45394
-35.45140839,-26.47673988,20.31059837,14.263208
-36.45196533,-26.47994423,20.4003849,15.072944
-37.45360947,-26.48364449,20.48339653,15.883951
-38.45677567,-26.48754501,20.55857468,16.705353
-39.4613533,-26.49146843,20.62464142,17.546614
-40.46849442,-26.49516869,20.67970276,18.395825
-41.4783287,-26.4983902,20.72101784,19.246548
41.48077393,-27.49796486,20.72104645,19.790947
40.47119141,-27.49448013,20.68369293,18.941601
39.46514511,-27.49053001,20.63357544,18.107832
38.46077347,-27.48639107,20.57373238,17.291626
37.45835114,-27.48267174,20.50599098,16.480267
36.45619202,-27.47843361,20.43113327,15.668728
35.45557022,-27.47491455,20.3497715,14.860366
34.45514297,-27.47167778,20.26247406,14.072297
33.455513,-27.46862221,20.16932869,13.300972
32.45711517,-27.46694374,20.07121277,12.532056
31.45797157,-27.46523666,19.9678421,11.763383
30.46013451,-27.46462822,19.85943985,11.018863
29.46206474,-27.46468353,19.74610329,10.2944
28.46517181,-27.46579361,19.62833405,9.573369
27.46733856,-27.46776199,19.50579071,8.858778
26.4711132,-27.47105598,19.37900925,8.184108
25.47397423,-27.47531319,19.24764252,7.517888
24.47729492,-27.47984505,19.1111412,6.858967
23.48161125,-27.48662758,18.9703598,6.247506
22.48640823,-27.49621391,18.82647324,5.655395
21.48932266,-27.50649071,18.67717361,5.080977
20.49397469,-27.517313,18.52244377,4.569046
19.49916267,-27.53273964,18.3657608,4.087309
18.50259018,-27.54940605,18.20557213,3.664157
17.50846672,-27.56955338,18.04457283,3.301891
16.51041222,-27.58781624,17.88043785,2.949504
15.51258373,-27.61258698,17.71463966,2.639748
14.51173115,-27.64111519,17.54452705,2.33502
13.5151453,-27.66943169,17.37322044,2.076422
12.51445198,-27.69704628,17.20140648,1.816958
11.51834774,-27.72823906,17.03630829,1.603095
10.50867748,-27.76438713,16.87040138,1.393048
9.51521683,-27.79886246,16.71923065,1.22441
8.50042915,-27.82727432,16.56279755,1.056736
7.50479507,-27.86344528,16.42355728,0.933141
6.49977255,-27.88468361,16.30851936,0.800389
5.47386837,-27.90662575,16.19363976,0.696668
4.47256327,-27.91473389,16.08281326,0.615878
3.46655703,-27.91905022,16.00227356,0.539712
2.46118093,-27.92597198,15.95042419,0.485983
1.43627083,-27.91748047,15.89910984,0.443734
0.43927491,-27.91028214,15.86896896,0.425026
-0.57821155,-27.92751503,15.88489342,0.435763
-1.55761671,-27.90859795,15.906744,0.43325
-2.59202933,-27.92172432,15.97540474,0.482099
-3.59453797,-27.9065876,16.0221386,0.533218
-4.59412479,-27.86297226,16.07957649,0.593831
-5.58183193,-27.85315323,16.19277191,0.674143
-6.6136775,-27.83917999,16.30366325,0.789128
-7.58206367,-27.81541824,16.41680145,0.915426
-8.60284901,-27.79141045,16.55995369,1.056659
-9.57857513,-27.75251198,16.69932938,1.214266
-10.57351685,-27.71500015,16.86755371,1.3768
-11.57787704,-27.69263458,17.03768921,1.591877
-12.57227802,-27.66141129,17.19291115,1.815554
-13.5544405,-27.6274662,17.35596085,2.066616
-14.55076027,-27.60652924,17.5331707,2.33203
-15.53972912,-27.58987999,17.70717239,2.637801
-16.53587151,-27.5712738,17.87758827,2.949118
-17.52664375,-27.54943466,18.04110146,3.297773
-18.52033234,-27.53250313,18.20439911,3.660756
-19.5123539,-27.5181694,18.3639679,4.084436
-20.50655365,-27.50948524,18.52166748,4.570385
-21.50010872,-27.49789047,18.67331696,5.081758
-22.49354362,-27.48849869,18.82122612,5.655157
-23.48793983,-27.48185539,18.96542931,6.248701
-24.48210526,-27.47596741,19.10556412,6.860068
-25.47674751,-27.47222328,19.24226379,7.518082
-26.47238541,-27.4692955,19.37465477,8.184031
-27.46774292,-27.46687508,19.50279427,8.858606
-28.4643898,-27.46609497,19.62687874,9.573063
-29.46073914,-27.46525383,19.74628258,10.293822
-30.45841217,-27.46577263,19.86118317,11.018372
-31.45628738,-27.46697235,19.9709568,11.763204
-32.4548645,-27.46856499,20.07552528,12.53139
-33.45385361,-27.4705143,20.17480659,13.30098
-34.45381546,-27.47355652,20.26852989,14.072586
-35.4545784,-27.4766922,20.35604858,14.860798
-36.45545197,-27.48023415,20.43747139,15.669375
-37.45782089,-27.48400497,20.51230621,16.480826
-38.46112061,-27.48790741,20.57949638,17.292996
-39.46561432,-27.49153709,20.63821793,18.108959
-40.47226334,-27.49524879,20.68680382,18.943031
-41.48099136,-27.49815559,20.72311211,19.79131
41.48389435,-28.49807358,20.7233181,20.342499
40.47492599,-28.49472809,20.69130516,19.514696
39.4691391,-28.49097252,20.64749527,18.700884
38.46504593,-28.48700333,20.59474373,17.88846
37.46191406,-28.48284721,20.53431892,17.076494
36.460289,-28.47929382,20.46746826,16.271511
35.45845032,-28.47508621,20.39438629,15.487919
34.45817947,-28.47178459,20.31557465,14.715762
33.4579277,-28.46879005,20.23147774,13.943992
32.45824051,-28.46604729,20.14215851,13.174371
31.45952034,-28.46448898,20.04834366,12.431087
30.46028709,-28.46304512,19.94974327,11.702528
29.46247101,-28.46260262,19.8469429,10.976633
28.4640522,-28.46271324,19.73995399,10.256599
27.4665947,-28.4640007,19.62906075,9.573037
26.46869278,-28.46596909,19.51414108,8.896568
25.47171974,-28.46888542,19.39547348,8.224531
24.47439575,-28.4732914,19.27309799,7.590508
23.47772026,-28.47813988,19.14698219,6.97363
22.48032761,-28.48448563,19.01652908,6.364333
21.48496056,-28.49299049,18.88323784,5.805152
20.48722458,-28.50278854,18.74646759,5.264704
19.49216843,-28.51385498,18.60698509,4.750717
18.4946003,-28.52676773,18.46504593,4.294776
17.49860191,-28.5420723,18.32160759,3.866471
16.50287628,-28.5603981,18.17954826,3.506884
15.50020409,-28.57976723,18.03221893,3.181089
14.50427628,-28.59928894,17.88263702,2.882861
13.50397682,-28.62143326,17.73398209,2.607102
12.50789452,-28.6464138,17.58878136,2.351124
11.50475502,-28.67221642,17.44499969,2.121905
10.50541592,-28.69552803,17.30172729,1.909116
9.50363255,-28.72208595,17.1656456,1.725232
8.50158501,-28.74720192,17.03876114,1.556974
7.49826956,-28.76719284,16.91441345,1.410523
6.49388456,-28.80113792,16.80820465,1.295298
5.49262476,-28.8192215,16.71279144,1.183825
4.49123764,-28.83216095,16.63794518,1.094221
3.47512603,-28.8505497,16.573246,1.021456
2.47304416,-28.86713219,16.52207375,0.979807
1.48025608,-28.86274147,16.49934959,0.927221
0.45962745,-28.84692383,16.48914909,0.891737
-0.55038834,-28.83752251,16.47466469,0.894531
-1.54074264,-28.84381866,16.50459671,0.909401
-2.572721,-28.83579254,16.52686501,0.960702
-3.54229569,-28.8233223,16.56672287,1.006606
-4.55492163,-28.80868149,16.65205383,1.078334
-5.56718063,-28.79223442,16.72710991,1.167433
-6.55741501,-28.76636887,16.80997086,1.278399
-7.56050062,-28.73985672,16.91262627,1.403577
-8.55840588,-28.71300697,17.02516747,1.549415
-9.54672241,-28.68995476,17.15576935,1.715858
-10.54885769,-28.67111397,17.29929733,1.90218
-11.54592323,-28.64580345,17.43579865,2.118144
-12.53826046,-28.62056351,17.57765007,2.345557
-13.53016663,-28.60123634,17.72760201,2.603918
-14.5297575,-28.58065605,17.87551308,2.881293
-15.52247238,-28.56129074,18.02037621,3.182844
-16.51597023,-28.5436039,18.16839981,3.505694
-17.51140976,-28.53050804,18.31646729,3.866222
-18.50467682,-28.518013,18.46128273,4.294366
-19.50164032,-28.50683212,18.60376549,4.75094
-20.49627876,-28.49592209,18.74139786,5.265753
-21.48994446,-28.48817253,18.87792778,5.805267
-22.48659706,-28.48153877,19.011446,6.366789
-23.48119736,-28.47535515,19.14071465,6.974485
-24.47692299,-28.47102547,19.26738167,7.590935
-25.47324944,-28.46787834,19.39028168,8.225216
-26.46899796,-28.46530342,19.50981903,8.89653
-27.46642303,-28.46422577,19.62590408,9.573206
-28.46282005,-28.46338463,19.73806381,10.256251
-29.4608345,-28.46380806,19.84670448,10.976272
-30.45877838,-28.46472359,19.95089531,11.702575
-31.45730972,-28.46610641,20.05070305,12.430595
-32.45637894,-28.46785927,20.14592171,13.174178
-33.45620346,-28.47058296,20.23613167,13.943893
-34.45701599,-28.47365189,20.32078171,14.716176
-35.45765305,-28.47698212,20.39978027,15.488659
-36.45930862,-28.48060036,20.47307587,16.2717
-37.46212006,-28.48456001,20.53983879,17.077849
-38.46517563,-28.48812294,20.5994854,17.889385
-39.46999359,-28.49192047,20.65117455,18.702261
-40.47542191,-28.49512482,20.69369888,19.515415
-41.48397064,-28.49818802,20.72527313,20.342695
41.48637772,-29.498209,20.7253418,20.923985
40.47865295,-29.49518013,20.69829369,20.110068
39.47300339,-29.49143982,20.66056442,19.297032
38.46920776,-29.48769188,20.61458778,18.485268
37.46591949,-29.48353004,20.56155014,17.68482
36.46366882,-29.47962761,20.50206566,16.905682
35.46247101,-29.47601128,20.43716812,16.132715
34.46091461,-29.47205353,20.36673737,15.359244
33.46054459,-29.46878242,20.29117203,14.590486
32.46038055,-29.46596718,20.21083069,13.847805
31.46089935,-29.46360588,20.12600327,13.117424
30.46171951,-29.46191406,20.03710175,12.388171
29.46282387,-29.46082497,19.94426727,11.665445
28.46449471,-29.46030235,19.8479557,10.976338
27.46590233,-29.46052551,19.74795723,10.29407
26.46792221,-29.46183014,19.64455223,9.614476
25.46987534,-29.46388626,19.53777122,8.965837
24.47245789,-29.46665573,19.42786026,8.337136
23.4748745,-29.47103119,19.31503868,7.712652
22.47711754,-29.47571564,19.19865417,7.121502
21.48049927,-29.4814949,19.07977486,6.555182
20.4830761,-29.48852158,18.95855713,5.99637
19.48550034,-29.49794579,18.83489418,5.489743
18.48893356,-29.50901794,18.70972633,5.002167
17.49171066,-29.52069664,18.58356857,4.545872
16.49363327,-29.53517151,18.45657539,4.140302
15.49549961,-29.54883003,18.32799911,3.757794
14.49608326,-29.565382,18.1990757,3.449011
13.49817944,-29.5827713,18.07080841,3.159577
12.49715519,-29.6016407,17.94320297,2.908422
11.49953461,-29.6218071,17.81835938,2.666546
10.49819088,-29.64271355,17.69810867,2.45685
9.49762535,-29.6609726,17.58153534,2.256319
8.4980545,-29.68255997,17.47377968,2.090426
7.49365377,-29.70297241,17.37216187,1.932792
6.49213791,-29.7150631,17.27182388,1.807928
5.49215746,-29.73461723,17.18931007,1.693299
4.48960209,-29.75448418,17.12315369,1.611072
3.48542738,-29.76129341,17.0638485,1.528564
2.48380399,-29.76044846,17.01623726,1.474111
1.48152864,-29.7723484,16.99534416,1.434922
0.48499066,-29.7820015,16.99681282,1.416793
-0.52889097,-29.77371788,17.00222015,1.408604
-1.5321244,-29.76285362,17.00708771,1.422521
-2.52995801,-29.75236893,17.03326607,1.463489
-3.53392267,-29.73925781,17.07472801,1.507521
-4.53601646,-29.73336983,17.1299839,1.597963
-5.53637075,-29.7163353,17.19333076,1.681492
-6.5317812,-29.70101547,17.27344322,1.803582
-7.53026533,-29.67814064,17.36545181,1.923827
-8.5323925,-29.66156197,17.46703339,2.084823
-9.52909374,-29.64406395,17.57389259,2.25503
-10.52665806,-29.62499619,17.68697929,2.456014
-11.5224123,-29.60461807,17.80683327,2.665903
-12.51819801,-29.58723259,17.93201447,2.909413
-13.51521492,-29.56984329,18.0588131,3.162133
-14.5108757,-29.55371094,18.18754387,3.451626
-15.50725842,-29.53784752,18.31678772,3.75897
-16.50230598,-29.52541924,18.44643402,4.140169
-17.49933434,-29.5136261,18.57522202,4.546188
-18.49552727,-29.50265121,18.70234299,5.002371
-19.49167252,-29.49404526,18.82793427,5.491298
-20.48726082,-29.4861412,18.95169067,5.998065
-21.48429871,-29.47939873,19.0730114,6.556693
-22.48026276,-29.47408295,19.19163322,7.122841
-23.47678375,-29.46977234,19.3079319,7.713541
-24.47343063,-29.46639252,19.42140388,8.338001
-25.4701786,-29.46361351,19.53210831,8.966114
-26.46767426,-29.46243668,19.63981628,9.614925
-27.46490097,-29.46143532,19.74427986,10.294137
-28.46306801,-29.46164894,19.84557343,10.976373
-29.46123314,-29.46244049,19.94327927,11.665467
-30.45975113,-29.46361923,20.03741074,12.387908
-31.45885277,-29.46526146,20.12774277,13.117086
-32.45864105,-29.46787262,20.21374512,13.847889
-33.45926285,-29.47070503,20.29484749,14.590855
-34.45990372,-29.4739418,20.37083054,15.359774
-35.46127701,-29.47743034,20.44168854,16.13283
-36.46341705,-29.48125076,20.50691986,16.906672
-37.46598816,-29.48490143,20.56601715,17.685867
-38.46951294,-29.48867416,20.61847305,18.486227
-39.47373962,-29.49211121,20.66345787,19.298121
-40.47894669,-29.49539757,20.70030212,20.110504
-41.48630905,-29.49819374,20.72726059,20.923989
41.48875427,-30.49827385,20.72717667,21.518315
40.48194885,-30.49553299,20.70459175,20.70546
39.47694016,-30.49208832,20.67269707,19.894982
38.4731102,-30.48833656,20.63317299,19.100577
37.47006607,-30.48450661,20.58718681,18.324083
36.46747971,-30.48033142,20.53519058,17.549977
35.46570969,-30.47657776,20.47774506,16.776659
34.46465683,-30.47288132,20.41555595,16.00988
33.46335983,-30.4691925,20.34843063,15.268126
32.46298218,-30.46593857,20.27671814,14.536137
31.46284676,-30.46324348,20.20082855,13.804877
30.46335793,-30.46106339,20.12119484,13.080633
29.46403313,-30.45926285,20.03803444,12.387838
28.46522141,-30.45870018,19.95167542,11.702856
27.4663868,-30.45811653,19.86222649,11.018564
26.46776581,-30.4583683,19.76964378,10.359296
25.46919632,-30.45941162,19.67403793,9.723704
24.47142982,-30.4615078,19.5759697,9.090961
23.47289085,-30.46386719,19.47502899,8.478605
22.47539711,-30.46748543,19.37190628,7.899086
21.47722816,-30.47218323,19.2665844,7.3231
20.47990036,-30.47819328,19.15954399,6.780061
19.48126984,-30.4845295,19.05014801,6.263326
18.48450279,-30.49238205,18.93982315,5.756185
17.48615456,-30.50214386,18.82895088,5.302622
16.48814011,-30.51267052,18.71676254,4.862951
15.49081707,-30.52452087,18.60565376,4.46272
14.49046516,-30.53595924,18.49380684,4.098462
13.49111748,-30.55065918,18.38218498,3.766762
12.49291515,-30.5655098,18.27226257,3.490902
11.49233532,-30.58014488,18.1642704,3.236931
10.49343967,-30.59552574,18.05995369,3.028065
9.49337006,-30.61254311,17.96175003,2.819461
8.49226665,-30.62770271,17.86763191,2.653147
7.49212265,-30.64314079,17.78016663,2.487633
6.49104118,-30.65959167,17.70137024,2.364093
5.49107647,-30.66885567,17.62866974,2.238648
4.48928165,-30.67745209,17.56551361,2.151301
3.49013877,-30.69004631,17.51834869,2.071325
2.48932648,-30.69989586,17.48690224,2.01943
1.4847765,-30.69970703,17.45976257,1.975749
0.48639917,-30.69841194,17.44639397,1.956139
-0.5138936,-30.6984005,17.45161629,1.954456
-1.51591182,-30.69413567,17.46671295,1.968523
-2.51450944,-30.68831253,17.49305916,2.009417
-3.51971316,-30.68328667,17.5310154,2.062232
-4.52108765,-30.67058563,17.57245255,2.147391
-5.51785803,-30.65733337,17.62701607,2.234682
-6.51621294,-30.64313316,17.69417572,2.359387
-7.51544619,-30.63366699,17.77462387,2.487846
-8.51458836,-30.61738586,17.85905838,2.654423
-9.51285362,-30.60126305,17.94959641,2.822043
-10.51043987,-30.58518982,18.04701614,3.031193
-11.50695801,-30.57163048,18.15065765,3.241339
-12.503932,-30.556633,18.25814629,3.494454
-13.50263977,-30.54227066,18.36807632,3.769832
-14.49814606,-30.52916145,18.47942734,4.101215
-15.49601269,-30.51818848,18.59310913,4.46341
-16.49362183,-30.50717926,18.70589447,4.863816
-17.49042511,-30.49765587,18.81850815,5.303172
-18.48781204,-30.48994637,18.93037796,5.757599
-19.48436546,-30.48242378,19.04099655,6.264634
-20.48195457,-30.47650146,19.15056801,6.780877
-21.47920418,-30.4718647,19.25810623,7.324865
-22.47624016,-30.46753311,19.36357307,7.900289
-23.47359657,-30.46411896,19.46720695,8.479713
-24.47104263,-30.46146774,19.56862831,9.091027
-25.46880722,-30.4603653,19.66778755,9.724399
-26.46676254,-30.45946693,19.76419067,10.35962
-27.46494293,-30.45952034,19.85791779,11.018651
-28.46373749,-30.46015739,19.94861221,11.702913
-29.46228218,-30.46122932,20.03616524,12.388064
-30.46135139,-30.46278763,20.12076378,13.080429
-31.46126938,-30.46531105,20.20171547,13.805159
-32.46149826,-30.46790886,20.27850342,14.536441
-33.46221161,-30.47105408,20.35089493,15.268622
-34.46341705,-30.47446251,20.41861343,16.010075
-35.46504211,-30.47807884,20.48146439,16.777212
-36.4672966,-30.4818058,20.53901863,17.550898
-37.47004318,-30.48550797,20.59083939,18.324824
-38.47353745,-30.48918152,20.63632584,19.101544
-39.47750473,-30.49260521,20.67499733,19.895821
-40.48203278,-30.49558449,20.7064476,20.70562
-41.48874664,-30.498312,20.72908783,21.518395
41.49095535,-31.4984169,20.7288456,22.112559
40.48501587,-31.49585724,20.71033287,21.305786
39.48074341,-31.49278069,20.68379402,20.516945
38.47690201,-31.48910713,20.65048599,19.741999
37.47404861,-31.48537254,20.61112022,18.968346
36.4713974,-31.48147774,20.56629372,18.194586
35.46949005,-31.4774189,20.51632881,17.43038
34.46786499,-31.4737072,20.46172523,16.690479
33.46681976,-31.46995163,20.40282822,15.957701
32.46577835,-31.4664402,20.3396244,15.225098
31.46543312,-31.46323776,20.27241325,14.499849
30.46554184,-31.46077919,20.20174026,13.80496
29.46582222,-31.45874596,20.12786102,13.117394
28.46642876,-31.45689201,20.05088997,12.430513
27.46747589,-31.45630455,19.97135544,11.76354
26.46823502,-31.45575333,19.88906097,11.123777
25.46960068,-31.45600319,19.80421638,10.485905
24.47075081,-31.45685577,19.71697235,9.858907
23.47255898,-31.45845985,19.62774658,9.270713
22.47405434,-31.46100616,19.53661537,8.685881
21.47565079,-31.46403313,19.44356346,8.115508
20.47727776,-31.46816444,19.34887123,7.585685
19.47964287,-31.47306442,19.25335884,7.059731
18.4807682,-31.47914505,19.15692139,6.565642
17.48251343,-31.48631287,19.05933571,6.100098
16.4844265,-31.49419975,18.96170044,5.643896
15.48573875,-31.50324059,18.86439133,5.241529
14.4871521,-31.51353073,18.76806641,4.848262
13.48694992,-31.52295303,18.67135048,4.498995
12.48799706,-31.53457832,18.57613945,4.176965
11.4890213,-31.54648018,18.48365402,3.890028
10.48966217,-31.55804634,18.39476967,3.640294
9.48852062,-31.57048035,18.30884171,3.419976
8.490201,-31.5838604,18.22853661,3.243156
7.48963976,-31.5949688,18.1534996,3.078758
6.49046469,-31.60391617,18.08432388,2.944833
5.49004412,-31.616436,18.02514648,2.823649
4.49148655,-31.62488365,17.9745388,2.730011
3.49019337,-31.62773895,17.9309845,2.645443
2.49041152,-31.63446045,17.89842987,2.59157
1.49163115,-31.64092445,17.87928772,2.552179
0.49151492,-31.64193726,17.86981964,2.532418
-0.50740576,-31.63846779,17.87100983,2.529454
-1.50976694,-31.63714981,17.88298988,2.547679
-2.50850511,-31.63494301,17.90362549,2.591171
-3.50741363,-31.62716103,17.93326187,2.64558
-4.50794125,-31.61827278,17.97284698,2.728121
-5.50701666,-31.61068535,18.02140045,2.823521
-6.50540066,-31.59930992,18.07877159,2.946835
-7.50513315,-31.58672523,18.14286804,3.080445
-8.50227261,-31.57636642,18.21590614,3.246473
-9.50142193,-31.56439018,18.29518509,3.424667
-10.49842262,-31.55331039,18.37960815,3.645555
-11.4973278,-31.54065704,18.46814919,3.893528
-12.49450684,-31.5300045,18.56071854,4.180618
-13.49233532,-31.51924133,18.65614128,4.502204
-14.49053097,-31.50853539,18.75316238,4.84916
-15.48876286,-31.49929237,18.85097122,5.242281
-16.48622894,-31.4912281,18.94951439,5.644368
-17.48490715,-31.48438072,19.04783249,6.101382
-18.48196793,-31.47763824,19.14549255,6.566403
-19.48009872,-31.47238922,19.24293327,7.060524
-20.47800064,-31.46824265,19.33907127,7.586989
-21.47588348,-31.46430588,19.43379211,8.116538
-22.47378349,-31.46137428,19.5272789,8.68652
-23.47184563,-31.45933723,19.61918831,9.271344
-24.47016335,-31.45806313,19.70923805,9.859737
-25.46833229,-31.45721054,19.79714775,10.486155
-26.46684265,-31.45713043,19.88306618,11.124005
-27.46591568,-31.45782471,19.96642303,11.763712
-28.46471405,-31.45887756,20.04711533,12.430768
-29.46400833,-31.46036911,20.12528038,13.117307
-30.46396065,-31.46286964,20.20039368,13.805379
-31.46386909,-31.46521187,20.27213097,14.500134
-32.46461487,-31.46829987,20.34021187,15.225538
-33.46565247,-31.47165871,20.40416145,15.958056
-34.4669342,-31.47513962,20.46387672,16.690844
-35.46880341,-31.47879791,20.51911163,17.430866
-36.47114563,-31.48246765,20.56936073,18.195122
-37.47411728,-31.48628044,20.61412239,18.969076
-38.47751999,-31.48990822,20.65291214,19.743067
-39.48093033,-31.49309349,20.68566704,20.517349
-40.4850235,-31.49596405,20.71211243,21.305918
-41.49087906,-31.49833298,20.73076439,22.112511
41.492836,-32.49856186,20.73027039,22.716694
40.48799515,-32.49634933,20.71548843,21.932779
39.48406982,-32.49335098,20.69383812,21.159292
38.48094559,-32.49015045,20.66635323,20.38616
37.47769165,-32.48631668,20.63332558,19.612423
36.47539902,-32.48258591,20.59520721,18.851986
35.47313309,-32.47868347,20.55243874,18.113333
34.47154999,-32.47470093,20.5052433,17.38023
33.47018814,-32.47109985,20.45406723,16.647476
32.46917725,-32.46731567,20.39909172,15.922037
31.46831894,-32.46385193,20.3404274,15.225002
30.46795464,-32.46079254,20.27829552,14.535955
29.46813774,-32.45832443,20.21325874,13.847833
28.46835709,-32.45634842,20.14556503,13.174475
27.46883583,-32.45464706,20.07522011,12.531394
26.46967506,-32.45373154,20.00271416,11.89079
25.47031021,-32.45304108,19.92796898,11.254805
24.4714241,-32.45301437,19.85122681,10.65733
23.47248077,-32.45380783,19.77275085,10.067459
22.47374535,-32.45499802,19.6926384,9.481649
21.47501755,-32.45714951,19.61115646,8.938387
20.47632599,-32.45973206,19.52835846,8.403102
19.47785759,-32.46340942,19.44489861,7.878795
18.47921753,-32.46766281,19.36072159,7.399209
17.48036003,-32.47261047,19.2759552,6.923124
16.4816494,-32.47872925,19.19109917,6.48074
15.48266315,-32.48552322,19.10637474,6.065039
14.48410606,-32.4927063,19.02244949,5.661052
13.48502159,-32.50084686,18.93998718,5.307968
12.48496532,-32.50840759,18.85806656,4.958609
11.48604012,-32.51747894,18.77841568,4.662119
10.48643303,-32.52798462,18.70202255,4.379837
9.48739815,-32.53695679,18.62865829,4.137147
8.48755932,-32.54495239,18.55884552,3.917207
7.48885441,-32.5547142,18.49530411,3.73187
6.48900318,-32.56305313,18.43787003,3.572962
5.48957872,-32.56908035,18.38534546,3.440401
4.49227858,-32.57516479,18.34197807,3.335241
3.49219823,-32.58259964,18.3083725,3.253054
2.49208546,-32.58528519,18.28015137,3.193267
1.49289489,-32.58739853,18.25996208,3.153484
0.49544486,-32.58922577,18.25102043,3.134204
-0.5039323,-32.59096527,18.25313759,3.134798
-1.50381052,-32.58778763,18.26185608,3.153109
-2.50359464,-32.58369827,18.27770042,3.19413
-3.50041151,-32.58027649,18.30389977,3.254041
-4.50118351,-32.57549286,18.33868599,3.338323
-5.4994092,-32.56733704,18.37908936,3.443126
-6.49731255,-32.5594902,18.42850113,3.575506
-7.4968214,-32.55176926,18.4852066,3.73485
-8.49494362,-32.5422554,18.5466423,3.921142
-9.49332619,-32.53338623,18.6144352,4.140142
-10.49204731,-32.52355576,18.68655777,4.382198
-11.48950195,-32.51506042,18.76327324,4.664994
-12.48902416,-32.50591278,18.84249878,4.961487
-13.48606014,-32.49776077,18.92432404,5.308716
