//X,Y,Z,C2M_signed_distances
-30.71639824,-7.4936924,17.6456871,2.619828
-31.65612793,-7.49102259,18.03351021,3.193395
-32.60457993,-7.49005032,18.39800644,3.816576
-33.55993271,-7.48889351,18.74012184,4.574816
-34.5194397,-7.48928785,19.06211853,5.417927
-35.48430252,-7.48886871,19.36686707,6.311255
-36.45288086,-7.48980379,19.65503502,7.234847
-37.42586517,-7.49097013,19.92789268,8.178494
-38.40484238,-7.49309731,20.1848259,9.137664
-39.39255905,-7.49522114,20.42305374,10.110867
-40.39182663,-7.49797487,20.63686943,11.10044
-41.41189194,-7.49945259,20.81289864,12.113004
0.2409066,-8.63619995,1.13527107,-0.859085
-0.76597756,-8.60254002,1.12963486,-0.853814
-1.78499246,-8.56721878,1.14174271,-0.846429
-2.78904891,-8.53300953,1.18220329,-0.848562
-3.81979799,-8.5142231,1.25102425,-0.857105
-4.82247782,-8.49127865,1.34791374,-0.864635
-5.86261559,-8.43100357,1.47716331,-0.872782
-6.90449619,-8.41537857,1.63232994,-0.879749
-7.93322182,-8.42632484,1.84037209,-0.875811
-8.97269249,-8.39137554,2.07777023,-0.889384
-10.02317429,-8.33751297,2.35916901,-0.879829
-11.07501698,-8.31924725,2.69342995,-0.878462
-12.15269661,-8.294631,3.09146118,-0.871119
-13.25105095,-8.26559448,3.5700016,-0.867283
-14.34366798,-8.25922585,4.12410927,-0.867679
-15.55959702,-8.37700558,4.84964371,-0.844415
-16.76599503,-8.39248753,5.69569206,-0.855313
-18.00003624,-8.41024113,6.63770103,-0.821778
-19.23224831,-8.58000183,7.80491447,-0.776111
-20.35301781,-8.66876984,8.99528503,-0.722624
-21.32605934,-8.67381859,10.13757515,-0.662591
-22.15722084,-8.69428825,11.23589897,-0.610582
-22.93870544,-8.65015602,12.23814869,-0.532424
-23.69634247,-8.6027565,13.17355347,-0.435627
-24.47229767,-8.56564617,13.99586487,-0.261323
-25.27500534,-8.55041409,14.72805309,-0.010736
-26.14307404,-8.53616428,15.38013268,0.33597
-27.02082062,-8.52396488,15.93170547,0.744238
-27.92099762,-8.5159626,16.43822479,1.205269
-28.83573723,-8.50551033,16.90347099,1.703679
-29.76038933,-8.5005722,17.33462334,2.229508
-30.69793892,-8.49449348,17.73736572,2.780666
-31.641325,-8.49140835,18.1133461,3.351454
-32.59296799,-8.4895668,18.46697426,3.995098
-33.55081558,-8.48939323,18.79905128,4.765681
-34.51293945,-8.48724174,19.1124115,5.611855
-35.47971344,-8.48799706,19.40910149,6.511495
-36.45080185,-8.4882431,19.68966484,7.440613
-37.42472458,-8.49023819,19.95513916,8.386908
-38.40608597,-8.49209023,20.20538712,9.348937
-39.39398956,-8.49456978,20.4370327,10.322357
-40.39487076,-8.49733543,20.64495087,11.310672
-41.41461182,-8.49960518,20.81548119,12.3168
0.20435365,-9.66535664,1.32199097,-0.863025
-0.79777592,-9.61872578,1.3254776,-0.869326
-1.83113635,-9.58788967,1.34828758,-0.866221
-2.83356643,-9.56751156,1.39243507,-0.858346
-3.85634112,-9.52050114,1.47337532,-0.868084
-4.88753319,-9.50243568,1.58262825,-0.877524
-5.89819956,-9.50447464,1.73797417,-0.894806
-6.96969891,-9.4645977,1.91604805,-0.89353
-7.99792337,-9.43558788,2.09582901,-0.875451
-9.02584648,-9.41406536,2.35034561,-0.868668
-10.07507706,-9.38563156,2.66756248,-0.889685
-11.16257,-9.34447861,3.0172348,-0.873057
-12.23293209,-9.34065151,3.43133926,-0.855285
-13.32518673,-9.33503914,3.95217514,-0.875313
-14.48957634,-9.38601398,4.59720993,-0.880664
-15.71298027,-9.39722729,5.32358932,-0.841199
-16.88226318,-9.52249527,6.19705009,-0.826884
-18.14857292,-9.68261909,7.30146694,-0.800673
-19.27795982,-9.76049232,8.39072418,-0.755506
-20.34920502,-9.77565193,9.53983879,-0.702845
-21.24031067,-9.78380203,10.63267231,-0.638879
-22.04820061,-9.68971157,11.66857624,-0.592502
-22.81849861,-9.65562916,12.63619328,-0.517151
-23.59282112,-9.62614346,13.49711227,-0.379892
-24.38484192,-9.59311104,14.27428627,-0.181262
-25.21842766,-9.55846882,14.96498871,0.100692
-26.08922386,-9.55232525,15.56669044,0.476535
-26.97839165,-9.53667831,16.09666061,0.903055
-27.88442612,-9.51981544,16.58258247,1.367486
-28.80531311,-9.51061153,17.03193092,1.865318
-29.73763847,-9.5015564,17.44826889,2.389846
-30.67757607,-9.49624157,17.83638954,2.939728
-31.62613106,-9.4920845,18.20027733,3.521731
-32.58111191,-9.4904213,18.54167175,4.207419
-33.5410881,-9.48692226,18.86317825,5.001295
-34.5057869,-9.48738003,19.16751289,5.85921
-35.47549438,-9.48651409,19.45532417,6.755619
-36.44764328,-9.48757362,19.72753716,7.67519
-37.42446899,-9.48885632,19.98533058,8.611659
-38.40651321,-9.49136162,20.22785759,9.564667
-39.39626312,-9.49381542,20.45268631,10.535327
-40.39805984,-9.49717426,20.65376854,11.523795
-41.41749954,-9.49895573,20.81834602,12.529096
-0.85317832,-10.67333984,1.59675217,-0.885901
-1.8694874,-10.64526367,1.61667061,-0.882888
-2.88409328,-10.59490204,1.6714859,-0.891175
-3.91146731,-10.58854771,1.76942062,-0.893329
-4.94925594,-10.56420612,1.87585068,-0.881867
-5.97335625,-10.52736568,2.01737022,-0.885152
-7.01924896,-10.51783752,2.20555115,-0.877372
-8.02708817,-10.46869183,2.42844772,-0.886613
-9.12722015,-10.44024563,2.69451904,-0.871332
-10.16188717,-10.45813656,2.99652863,-0.841134
-11.23025131,-10.44525337,3.40155983,-0.856239
-12.30359459,-10.40494537,3.86776543,-0.889017
-13.44135857,-10.41142654,4.44033432,-0.887688
-14.64231777,-10.45878887,5.12117577,-0.868859
-15.83260918,-10.612216,5.9329977,-0.833109
-17.03811646,-10.66469002,6.83105087,-0.795265
-18.25421143,-10.74465275,7.91123486,-0.755402
-19.30950165,-10.83649445,9.00982571,-0.721617
-20.28903389,-10.88316154,10.1101799,-0.644682
-21.12457275,-10.81825733,11.13630104,-0.606098
-21.92592621,-10.80023384,12.17590714,-0.5601
-22.69071579,-10.73284721,13.03513145,-0.460664
-23.47807884,-10.64255047,13.8395195,-0.311778
-24.29682541,-10.58720684,14.56770706,-0.078778
-25.1551075,-10.58088112,15.21152687,0.246993
-26.0363636,-10.55669594,15.76438904,0.637188
-26.93429375,-10.5414772,16.27006531,1.068342
-27.84814072,-10.52737141,16.73663139,1.53726
-28.77417755,-10.51322746,17.16783905,2.04578
-29.71177673,-10.50305271,17.56895638,2.582289
-30.65820694,-10.49689388,17.94283104,3.141419
-31.61061859,-10.49310207,18.29234123,3.73172
-32.56803513,-10.48883057,18.62115479,4.441195
-33.53111649,-10.48751545,18.93243027,5.242898
-34.49885178,-10.48554134,19.22642517,6.110291
-35.47008896,-10.4858408,19.50479698,7.014272
-36.44516373,-10.48654842,19.76838875,7.9396
-37.42353439,-10.48840332,20.0177002,8.879173
-38.40761948,-10.49045181,20.25231934,9.830884
-39.39850616,-10.49352074,20.46955109,10.793181
-40.40128326,-10.49613762,20.66350937,11.76833
-41.42106628,-10.49920845,20.82164001,12.759662
-0.90338033,-11.7322998,1.90706635,-0.880619
-1.907498,-11.6769762,1.93558121,-0.889101
-2.95607257,-11.66869164,2.00482559,-0.89387
-3.98402095,-11.64779472,2.07587242,-0.87799
-4.97921753,-11.59090519,2.20144844,-0.884551
-6.05271626,-11.5512228,2.36734772,-0.885644
-7.07661104,-11.5267477,2.54931259,-0.879894
-8.12516975,-11.54000568,2.79969788,-0.864021
-9.16036034,-11.51773167,3.08248329,-0.863191
-10.25341225,-11.45046902,3.42396927,-0.859266
-11.31188965,-11.43609238,3.85028076,-0.884243
-12.45726395,-11.52330685,4.39692497,-0.869798
-13.57758236,-11.6209507,5.01654625,-0.859158
-14.79712296,-11.71670723,5.77848053,-0.83598
-15.94364071,-11.72197151,6.54929829,-0.816472
-17.17563248,-11.89190292,7.62279797,-0.78077
-18.25086403,-11.97885132,8.64937687,-0.744304
-19.29228401,-12.00646305,9.71969128,-0.675812
-20.16456223,-11.94923019,10.69160461,-0.619955
-21.0049572,-11.89016819,11.72378922,-0.582844
-21.79424095,-11.77452374,12.58334732,-0.499542
-22.57959175,-11.68813992,13.42862511,-0.388884
-23.36000443,-11.65229511,14.18901157,-0.217391
-24.21380043,-11.6253233,14.87890816,0.05703
-25.08765984,-11.58589363,15.45277596,0.405336
-25.97902298,-11.55969334,15.9769249,0.809157
-26.89112663,-11.54245567,16.45728683,1.260372
-27.80946922,-11.52675915,16.89824677,1.741631
-28.74414444,-11.51412773,17.31199265,2.251093
-29.68602943,-11.50500679,17.69606781,2.783053
-30.63825417,-11.49743938,18.054739,3.342988
-31.59480476,-11.49145317,18.38980675,3.969996
-32.55551529,-11.48855305,18.70609283,4.716943
-33.52142334,-11.48575687,19.00540543,5.538208
-34.49135208,-11.48514271,19.28887939,6.404443
-35.46559906,-11.48508167,19.55726624,7.299216
-36.44237518,-11.48589993,19.81138039,8.212491
-37.42301941,-11.48744011,20.05187988,9.147742
-38.40810013,-11.48986053,20.27818108,10.100313
-39.40122986,-11.49265671,20.48762321,11.064635
-40.40457916,-11.49624062,20.67400551,12.040225
-41.42475128,-11.49825764,20.82546234,13.03076
-0.95346099,-12.77300167,2.27048874,-0.878572
-1.98084509,-12.76564407,2.31612206,-0.881462
-3.01680303,-12.72815895,2.36096954,-0.865701
-4.00939131,-12.64698601,2.44428253,-0.875645
-5.0874238,-12.6414423,2.59942818,-0.888027
-6.12492561,-12.67486668,2.75676918,-0.838791
-7.09288788,-12.57862473,2.97246361,-0.879647
-8.27811813,-12.547369,3.24054146,-0.861944
-9.23902798,-12.62699318,3.52466583,-0.813914
-10.31465435,-12.60340023,3.97674942,-0.890248
-11.46564865,-12.64249039,4.46549988,-0.875478
-12.59635639,-12.65800285,5.00182819,-0.853387
-13.7595787,-12.73093128,5.68614674,-0.851163
-14.87864971,-12.80576992,6.41170788,-0.825116
-16.10163307,-12.99719334,7.419837,-0.794957
-17.19908714,-13.03531075,8.3567028,-0.755431
-18.26712227,-13.07915115,9.3781414,-0.687146
-19.19777489,-13.02377701,10.34626484,-0.629615
-20.0411129,-12.97808933,11.34547424,-0.606188
-20.85699272,-12.88555908,12.23710251,-0.52874
-21.61354256,-12.81416702,13.07981491,-0.457372
-22.43895721,-12.72723675,13.87835693,-0.316008
-23.27427673,-12.67374897,14.55370235,-0.078226
-24.13018227,-12.62255287,15.15731525,0.224464
-25.01807594,-12.58617592,15.70485497,0.5904
-25.92482185,-12.56917667,16.19915581,1.014232
-26.84332848,-12.54596233,16.64989853,1.467779
-27.77267075,-12.52898788,17.07033539,1.950377
-28.71363831,-12.51470566,17.46274948,2.472221
-29.66155815,-12.50503445,17.82802963,3.018682
-30.61755371,-12.49691963,18.1709671,3.584709
-31.57830048,-12.49099541,18.49226952,4.245101
-32.54335785,-12.48715591,18.79534912,5.005587
-33.51213837,-12.48514462,19.08223724,5.837984
-34.4849472,-12.48448372,19.35411644,6.715904
-35.46088028,-12.48412609,19.61186218,7.617102
-36.44011688,-12.48511028,19.85634804,8.534409
-37.42221832,-12.48656845,20.08773041,9.462462
-38.40962982,-12.48925114,20.30550957,10.400818
-39.40371323,-12.49243164,20.50652504,11.349228
-40.40817642,-12.4952364,20.68522263,12.315322
-41.42878342,-12.49907684,20.82942009,13.303109
-1.0358721,-13.84164619,2.70718193,-0.877299
-2.04387617,-13.79183483,2.72792816,-0.869683
-3.07115769,-13.75862694,2.79049683,-0.861039
-4.07842827,-13.76720905,2.92276001,-0.870193
-5.18028879,-13.72710133,3.05554771,-0.858585
-6.16507387,-13.65512657,3.18746567,-0.842332
-7.2235117,-13.7014513,3.49747467,-0.867341
-8.30644894,-13.68952274,3.80358505,-0.880628
-9.39665604,-13.64439297,4.12183952,-0.85725
-10.43457031,-13.73985577,4.57801437,-0.866838
-11.63232899,-13.80049324,5.12113094,-0.835332
-12.70720863,-13.91011333,5.743083,-0.835212
-13.90288925,-13.94777775,6.4723835,-0.822157
-14.99461842,-14.07321358,7.29798889,-0.80477
-16.17809868,-14.11107254,8.24567127,-0.764952
-17.20121002,-14.23714161,9.20165253,-0.690427
-18.16112137,-14.17077065,10.14367962,-0.652916
-19.03477478,-14.12516117,11.08654594,-0.614719
-19.88345718,-13.99698353,11.97237873,-0.556596
-20.66801071,-13.88998032,12.79031086,-0.49679
-21.50172424,-13.78452015,13.57467556,-0.373148
-22.30884361,-13.73090267,14.26307106,-0.180348
-23.17755318,-13.65445518,14.89743042,0.080912
-24.04623032,-13.61820602,15.45286369,0.410307
-24.95583916,-13.59442616,15.96705437,0.800647
-25.87391281,-13.56698227,16.42163849,1.233842
-26.7981739,-13.54656219,16.84660721,1.7009
-27.73724365,-13.52774048,17.24533844,2.19929
-28.68371964,-13.51550961,17.61678314,2.720219
-29.63766479,-13.50408936,17.96456528,3.259668
-30.59771156,-13.49609661,18.29092216,3.847452
-31.56288147,-13.49065113,18.59797859,4.557639
-32.53096771,-13.486516,18.88736343,5.346502
-33.50378036,-13.48470116,19.16155815,6.184612
-34.47843552,-13.48345661,19.42121315,7.051297
-35.45708466,-13.48337269,19.66846657,7.941216
-36.43772888,-13.4840889,19.90290642,8.857344
-37.42232513,-13.48597813,20.12501717,9.788966
-38.41101837,-13.48889828,20.33354187,10.728917
-39.40681458,-13.49186325,20.5260849,11.67788
-40.41170883,-13.49578762,20.69673729,12.636453
-41.43296051,-13.49807835,20.83352089,13.608917
41.49613571,41.50078201,20.90894699,28.702079
40.49604797,41.50067902,20.90860939,28.004201
39.49597931,41.50052643,20.90817261,27.318647
38.49583054,41.50008392,20.90755844,26.633163
37.49568939,41.49943161,20.90679359,25.948623
36.4955101,41.49840164,20.90585899,25.280036
35.49528885,41.4972496,20.90468407,24.63293
34.49515152,41.49586868,20.90331459,23.991962
33.49481964,41.49402237,20.90164185,23.350521
32.49468231,41.4919548,20.89970398,22.719688
31.49445152,41.48946381,20.89763641,22.115217
30.49463081,41.48725128,20.89549446,21.521293
29.49438667,41.48461151,20.89319801,20.926792
28.49436569,41.48177719,20.89069366,20.345304
27.49458122,41.47894287,20.88813591,19.794368
26.49468994,41.47602844,20.88563347,19.249481
25.49437714,41.47302246,20.88285446,18.705394
24.49457169,41.46944046,20.87984276,18.188686
23.49439621,41.46591568,20.87661171,17.694622
22.49449539,41.46205521,20.87323952,17.200506
21.49473572,41.45900726,20.87013435,16.723526
20.49489975,41.45579529,20.86717606,16.281215
19.49477577,41.45280457,20.86411095,15.84118
18.49487877,41.44945145,20.86083221,15.413034
17.4949913,41.44612122,20.85760689,15.02445
16.49479866,41.44278336,20.85419273,14.639055
15.49478245,41.43905258,20.8504715,14.267581
14.49475956,41.43507767,20.8465786,13.936225
13.49547482,41.43213272,20.84331512,13.607892
12.49452209,41.42900085,20.84003639,13.302761
11.49430752,41.42502594,20.83591652,13.030633
10.49485397,41.42111206,20.83218193,12.759258
9.49474049,41.41826248,20.82918358,12.52967
8.49499035,41.41582108,20.8265152,12.317749
7.49426937,41.41241455,20.82351303,12.113341
6.49426746,41.40920639,20.82032967,11.956797
5.49441814,41.40673447,20.81768036,11.804091
4.49470663,41.40464401,20.81553459,11.683692
3.49459362,41.40274811,20.81376648,11.591398
2.49526405,41.40213013,20.81281281,11.506004
1.49478483,41.40209198,20.81229782,11.470834
0.49508625,41.40104675,20.81147194,11.439616
41.49600983,40.5006752,20.90891838,28.004016
40.49582291,40.50046158,20.90829468,27.288143
39.49544525,40.49992752,20.90721512,26.590246
38.49502563,40.49915695,20.90554237,25.904159
37.49448013,40.49782944,20.90328979,25.217742
36.49389267,40.49617004,20.90037155,24.532629
35.49337006,40.49413681,20.89670563,23.865314
34.49271774,40.49169159,20.89225197,23.219137
33.4921875,40.48896027,20.88692856,22.576765
32.49166489,40.48593903,20.88092232,21.93423
31.49145508,40.48261642,20.87444115,21.307306
30.49099159,40.47883224,20.86753464,20.706447
29.49090576,40.47525406,20.8601799,20.111074
28.49082756,40.47127533,20.85246658,19.515829
27.49076653,40.46731567,20.84451485,18.942812
26.49052238,40.46299362,20.8360939,18.395134
25.49078751,40.45862579,20.82735252,17.848835
24.490345,40.45454407,20.81809044,17.309391
23.49029732,40.45034027,20.80830002,16.805748
22.49060631,40.44649506,20.79848862,16.311401
21.49077797,40.44213867,20.78881454,15.818422
20.49100113,40.43808746,20.77936935,15.361173
19.49093056,40.43396759,20.76974678,14.919756
18.49106026,40.43010712,20.75989532,14.479632
17.49115372,40.4262886,20.74996567,14.076275
16.49121475,40.4223671,20.73990059,13.690008
15.49096203,40.41896439,20.72954369,13.306437
14.49116421,40.41597748,20.71914101,12.965919
13.49138069,40.41239166,20.70916748,12.636354
12.49100494,40.40839767,20.6989994,12.315082
11.49067688,40.40517044,20.6884613,12.04012
10.4911623,40.40232086,20.67832565,11.768839
9.49189663,40.39843369,20.66907501,11.523932
8.49134445,40.39450455,20.6602726,11.309944
7.49151516,40.39167786,20.65184021,11.099948
6.49139309,40.38932037,20.64394379,10.938885
5.49209404,40.38714218,20.63692665,10.786224
4.49266052,40.38517761,20.63111115,10.658427
3.49309874,40.38349915,20.62631416,10.566174
2.49402285,40.38168335,20.62288857,10.477252
1.49399114,40.38013077,20.62062645,10.438983
0.49394888,40.38017273,20.61898613,10.408777
41.49583054,39.50061798,20.90876198,27.318426
40.49526215,39.50013733,20.90752602,26.590099
39.49454117,39.49926376,20.90529633,25.872898
38.49379349,39.4981041,20.90194511,25.174787
37.49282455,39.49627304,20.89738274,24.487598
36.49176025,39.49403763,20.89143753,23.800066
35.49068451,39.49129105,20.88399696,23.11433
34.48987961,39.48820114,20.87513733,22.448471
33.48904037,39.48503494,20.86499405,21.803274
32.48836517,39.48120117,20.85369301,21.159746
31.48777008,39.477314,20.84149742,20.516983
30.48735237,39.47326279,20.82845497,19.895072
29.4869957,39.46893692,20.81476974,19.297021
28.48688698,39.46471786,20.80053139,18.70083
27.48633575,39.46012115,20.78550339,18.107267
26.4863224,39.45567322,20.76983261,17.544826
25.48584366,39.45112228,20.75350189,16.997608
24.48591232,39.44672012,20.73662567,16.45079
23.48597527,39.44268036,20.71943474,15.9237
22.48591423,39.4384079,20.70196915,15.427459
21.48622704,39.43480301,20.68456268,14.932939
20.48616409,39.43035889,20.66681671,14.450818
19.48648453,39.42637253,20.64901733,14.007067
18.48656654,39.42248535,20.63125038,13.565492
17.48666573,39.4186821,20.61334991,13.139014
16.48680687,39.41516876,20.59535027,12.751688
15.486866,39.4115181,20.57722473,12.365228
14.48699951,39.40865326,20.5593586,12.005416
13.48703766,39.4052124,20.54146576,11.675498
12.48701859,39.40246582,20.52368736,11.347125
11.48710918,39.39972305,20.50600243,11.062522
10.48692799,39.39635086,20.48838997,10.790174
9.48721123,39.39355469,20.47139359,10.532059
8.48812008,39.39110947,20.45561409,10.318994
7.48837757,39.38880157,20.44106102,10.106553
6.48928642,39.38700867,20.4278698,9.937913
5.48989773,39.38510513,20.41613388,9.785295
4.49051905,39.38370132,20.40613937,9.650715
3.4918654,39.38273621,20.39808846,9.55912
2.49195218,39.38201523,20.39179802,9.469368
1.4934454,39.38128281,20.38714981,9.43006
0.49346939,39.38016129,20.38383293,9.398627
41.4954071,38.50051117,20.90847206,26.632997
40.49441147,38.49972153,20.90622711,25.903947
39.49325562,38.49855804,20.90231895,25.174551
38.49193573,38.49688339,20.89660454,24.455759
37.49040222,38.49455261,20.88886261,23.756732
36.4888916,38.49172592,20.87889862,23.068325
35.48762894,38.48854065,20.86671638,22.379753
34.48630524,38.48516464,20.85259628,21.69395
33.48533249,38.48122787,20.83669281,21.030042
32.48454285,38.47748184,20.81930733,20.385486
31.48378563,38.47318649,20.80057144,19.741258
30.48322868,38.4690094,20.78073502,19.099643
29.4828701,38.46458435,20.75996208,18.484094
28.48208618,38.46009445,20.73814774,17.886905
27.48187447,38.45555496,20.71526527,17.290025
26.48139954,38.45114517,20.69152451,16.702215
25.48138618,38.44697952,20.66697121,16.149013
24.48127747,38.44288254,20.6418438,15.601993
23.48137474,38.43902588,20.61626816,15.05727
22.48165321,38.43563461,20.5905056,14.547945
21.48155785,38.43151474,20.5642395,14.052398
20.48194313,38.42859268,20.53781509,13.55877
19.48218346,38.42536545,20.51123047,13.100126
18.4824791,38.42206192,20.48454475,12.658815
17.48277855,38.41886902,20.45778275,12.219149
16.48277473,38.41578674,20.43086243,11.820786
15.48310375,38.41357422,20.4040966,11.435471
14.48341942,38.41067123,20.37738419,11.057212
13.4833889,38.40840912,20.35081673,10.725206
12.4836483,38.40594101,20.32436943,10.396078
11.48371315,38.40384293,20.29825401,10.095136
10.48429489,38.40261459,20.27278137,9.824958
9.48475647,38.40133667,20.248209,9.558557
8.48550701,38.39998627,20.22506142,9.342046
7.48638916,38.39898682,20.20386314,9.130938
6.48717928,38.39784622,20.1845665,8.952383
5.48831415,38.39709854,20.16740799,8.801038
4.48940325,38.39560699,20.1521759,8.659831
3.4906919,38.39490891,20.13981628,8.568088
2.49241233,38.39447021,20.13037872,8.47761
1.49275804,38.39414978,20.12340736,8.436308
0.49431717,38.39442062,20.11884499,8.406361
41.4947052,37.50035858,20.90802574,25.948366
40.49306107,37.49921036,20.9043045,25.217548
39.49144745,37.497715,20.89814949,24.487464
38.4895134,37.4954834,20.88931847,23.756567
37.48752975,37.49272156,20.87755394,23.035766
36.48573303,37.48950958,20.86275291,22.336324
35.48394775,37.48618317,20.84515572,21.647087
34.48265457,37.48222733,20.82504463,20.957634
33.48150635,37.47853851,20.80282593,20.272409
32.48052979,37.47433472,20.77874374,19.611373
31.47982597,37.47027588,20.75298309,18.967002
30.47921944,37.46585083,20.72583389,18.322431
29.47840118,37.46156311,20.69729233,17.683055
28.47793579,37.45717239,20.66731453,17.074449
27.4773674,37.45304108,20.63609314,16.477359
26.47728539,37.44912338,20.60380936,15.880695
25.47720909,37.44544983,20.57064629,15.303373
24.47741699,37.44199753,20.53673553,14.755945
23.47750282,37.43881226,20.50229836,14.209483
22.47764206,37.43546677,20.4672718,13.673718
21.47815323,37.43321228,20.43202019,13.17694
20.47846031,37.43061066,20.39643478,12.682683
19.4788208,37.42832947,20.36058617,12.199605
18.47921181,37.42636871,20.32450104,11.757371
17.47953606,37.42443466,20.28832436,11.317201
16.47986794,37.42306519,20.25214577,10.897581
15.48015118,37.42127228,20.21577835,10.512646
14.48052311,37.41992569,20.17948341,10.128299
13.48095036,37.41891479,20.14354897,9.784357
12.48105526,37.41824722,20.10783958,9.457119
11.48202515,37.41775131,20.07283401,9.141312
10.48253345,37.41765594,20.03902626,8.872002
9.48370075,37.41814041,20.00678635,8.60417
8.48415661,37.41862488,19.97616768,8.379582
7.48549652,37.41872025,19.94766998,8.170209
6.48654079,37.41886139,19.92182159,7.982927
5.48760033,37.41897202,19.89847183,7.833005
4.48894072,37.42002106,19.8785038,7.689419
3.4902997,37.42040634,19.8615818,7.597669
2.49165249,37.42095184,19.84851646,7.508104
1.49330378,37.42132187,19.83901787,7.464775
0.49426404,37.42173767,19.83319092,7.435152
41.49357605,36.50012207,20.90733719,25.279483
40.49135971,36.49874496,20.90168381,24.532424
39.48915863,36.49672699,20.89261246,23.799963
38.48666,36.49414063,20.87989426,23.068271
37.48421097,36.49079132,20.86331558,22.335954
36.48204803,36.48760223,20.84307861,21.613784
35.48039246,36.48380661,20.81954575,20.914337
34.4787674,36.48017883,20.79310799,20.224647
33.47750854,36.4760437,20.76408386,19.534738
32.47651291,36.47214508,20.73285294,18.85036
31.47570419,36.46789551,20.69967079,18.192844
30.47495461,36.46378708,20.6646328,17.548128
29.4744606,36.45973587,20.62787819,16.90356
28.47392845,36.45598602,20.58948135,16.268787
27.47368431,36.45224762,20.54954147,15.666446
26.47357178,36.4487381,20.50834656,15.069826
25.4736557,36.44557953,20.46615219,14.474672
24.47390938,36.44306946,20.42312813,13.911846
23.47419548,36.44045258,20.37923431,13.365799
22.47494316,36.43872452,20.33492279,12.8208
21.47531128,36.43677902,20.29014969,12.303972
20.47588158,36.4355545,20.24497986,11.81105
19.47638321,36.43457794,20.19944382,11.318444
18.47703743,36.43390656,20.15374184,10.860717
17.47744942,36.43333054,20.10773087,10.422081
16.47787285,36.43273544,20.06148148,9.986198
15.47836304,36.43310928,20.01518059,9.596816
14.47882843,36.43354797,19.9688549,9.214757
13.47920895,36.43407822,19.92276192,8.852107
12.4802227,36.43481445,19.87734985,8.527475
11.4807806,36.43653488,19.833004,8.204878
10.48233414,36.43808746,19.79032516,7.931045
9.4827404,36.44008636,19.74955559,7.665868
8.48422146,36.44225693,19.71110535,7.430559
7.48514366,36.44447708,19.67543793,7.224718
6.48642015,36.44621658,19.64257431,7.030083
5.48788691,36.44855499,19.61349869,6.883881
4.48928165,36.44995499,19.58808517,6.738213
3.49056292,36.45214081,19.56726074,6.646242
2.49210668,36.45360565,19.55056763,6.558656
1.49325562,36.45521927,19.53874969,6.513727
0.4946453,36.4557724,19.5312233,6.484733
41.49220657,35.49998474,20.90646362,24.632129
40.48936844,35.49814224,20.89833641,23.864892
39.48633194,35.49586487,20.88565445,23.114234
38.48347473,35.4926796,20.86823082,22.379585
37.48059464,35.48946381,20.84624672,21.646841
36.47844315,35.48574066,20.82009315,20.914119
35.47635651,35.4821167,20.79024887,20.190689
34.47486115,35.47811508,20.7571125,19.491479
33.47345352,35.47431564,20.72096252,18.801439
32.4725647,35.47036362,20.68224716,18.111551
31.47159958,35.46625519,20.64113045,17.428243
30.47115898,35.4624939,20.59793854,16.774576
29.47073174,35.45911789,20.5528183,16.130312
28.47039223,35.45563507,20.50566292,15.485988
27.47037125,35.45257568,20.45674324,14.85814
26.47049141,35.44982147,20.40634727,14.260635
25.47101974,35.44753265,20.35477829,13.665258
24.47135925,35.44552994,20.30218124,13.075908
23.47203445,35.44425583,20.24872589,12.525143
22.47252274,35.44258881,20.19442558,11.980167
21.47353935,35.44235611,20.13968086,11.440904
20.474123,35.44187546,20.08435631,10.94246
19.47540092,35.44237137,20.0288868,10.45198
18.475914,35.44279099,19.97291565,9.969879
17.47661972,35.44375992,19.91650963,9.531815
16.47715187,35.44501114,19.85969353,9.096122
15.47772694,35.44650269,19.80252647,8.687299
14.47857189,35.44875336,19.74550819,8.308672
13.47975445,35.45147324,19.68916512,7.933848
12.48027229,35.45477295,19.63352203,7.609006
11.48199463,35.45815277,19.57938004,7.289875
10.48261356,35.4619751,19.52698708,7.004077
9.48427105,35.46587372,19.47703743,6.744063
8.48553944,35.47023392,19.43019485,6.499868
7.48698616,35.47390747,19.3866272,6.298794
6.48813295,35.47777939,19.34685326,6.101245
5.48952436,35.48152924,19.31154823,5.957167
4.49077988,35.48528671,19.28108025,5.8153
3.49239755,35.48801804,19.25551033,5.720789
2.49329162,35.49099731,19.23581886,5.636729
1.49463451,35.49298096,19.22138405,5.590107
0.49554285,35.49491119,19.21291161,5.563331
41.49068069,34.49981308,20.90539551,23.991041
40.48673248,34.49767303,20.89421844,23.218576
39.48342133,34.49489594,20.87723732,22.448188
38.47972107,34.49174881,20.85456085,21.693668
37.47695541,34.48809433,20.82670975,20.95759
36.47431183,34.48444366,20.7942543,20.224311
35.47245026,34.48048782,20.75765228,19.491233
34.47079849,34.47663116,20.71736336,18.766912
33.46967697,34.4728241,20.67380524,18.068365
32.46850967,34.46895218,20.62722588,17.378072
31.46800041,34.46531296,20.57800293,16.688335
30.4675827,34.46197891,20.52642632,16.007633
29.46736336,34.45870972,20.47252274,15.357439
28.46724701,34.45604324,20.41637802,14.713725
27.46758842,34.4535675,20.35823631,14.07059
26.46805382,34.45154953,20.29840851,13.452651
25.46855354,34.4498558,20.23696518,12.857794
24.46948814,34.4489212,20.17435074,12.263989
23.47052956,34.44809341,20.11076164,11.686266
22.47153664,34.44838333,20.046278,11.14325
21.4725399,34.44866562,19.98096275,10.601004
20.47415161,34.44991684,19.91515732,10.078495
19.47489166,34.45091248,19.84867096,9.589307
18.47630692,34.45303345,19.7818222,9.102017
17.47697258,34.45558167,19.71442413,8.647861
16.4774971,34.45843124,19.64610863,8.215794
15.47890091,34.4621315,19.57763863,7.790262
14.48028946,34.46684647,19.5097847,7.414491
13.48106289,34.47138977,19.44216537,7.042206
12.48310661,34.47659683,19.37579536,6.705547
11.48417759,34.48255539,19.31124115,6.393418
10.48566628,34.48871994,19.2486248,6.097868
9.48738003,34.495224,19.18883514,5.846141
8.48875046,34.50150681,19.13280296,5.598043
7.4902215,34.50782394,19.08070946,5.403741
6.49142313,34.51369858,19.03342628,5.211505
5.49309587,34.51909637,18.99145889,5.067684
4.49407244,34.5243988,18.9552803,4.933129
3.49510932,34.52922821,18.92531967,4.83839
2.49648786,34.53240967,18.90147972,4.758849
1.49692702,34.53583527,18.88481712,4.71282
0.49770758,34.5369072,18.87410736,4.687104
41.48876953,33.49968719,20.90404129,23.349697
40.48411179,33.49713135,20.88934517,22.576299
39.4796524,33.49424744,20.86746216,21.80257
38.47618484,33.49075699,20.83913422,21.029804
37.47289276,33.48722839,20.80511665,20.272153
36.47023392,33.48313141,20.76587868,19.534433
35.46833038,33.47924042,20.72206879,18.80109
34.46686554,33.4753685,20.67430305,18.067945
33.46557617,33.47159576,20.62288666,17.342918
32.46496201,33.46815872,20.56823921,16.645301
31.46444702,33.46471405,20.51065254,15.955484
30.46442413,33.46163177,20.45026398,15.266264
29.46425629,33.45899582,20.38718987,14.58858
28.46487236,33.45669556,20.3217926,13.942329
27.46523857,33.45497894,20.25418091,13.299747
26.46606255,33.45352173,20.18436241,12.659137
25.46703911,33.45289612,20.11269379,12.052237
24.46866417,33.45272064,20.03966331,11.459939
23.4700222,33.45333862,19.96554947,10.868577
22.4716053,33.45451736,19.89056206,10.309158
21.47310638,33.45638275,19.81437302,9.769773
20.47456169,33.45851517,19.73719788,9.231621
19.47642517,33.46194839,19.65939522,8.734107
18.47751617,33.46524048,19.58075333,8.250271
17.4784832,33.46931458,19.50106049,7.774676
16.48048592,33.4741745,19.42088127,7.347402
15.48211956,33.48081589,19.3412056,6.924871
14.48317051,33.48673248,19.26128387,6.535745
13.4850235,33.49435806,19.18194008,6.173376
12.48667526,33.50220108,19.10387993,5.825831
11.48884106,33.51019669,19.02769279,5.524792
10.49037647,33.51909637,18.95416641,5.228154
9.49186611,33.52806473,18.88376236,4.985723
8.49419022,33.53727722,18.81771469,4.749629
7.49522305,33.5462532,18.75677109,4.558668
6.49749994,33.55438232,18.70119667,4.381347
5.49750566,33.56189346,18.651577,4.24076
4.49998426,33.56919861,18.60937881,4.119607
3.50002122,33.57484818,18.57406616,4.028327
2.50063586,33.58070374,18.54659271,3.95931
1.50081313,33.58389282,18.52640915,3.915464
0.50178999,33.58774185,18.5151844,3.89535
41.48676682,32.49951935,20.90247345,22.718696
40.48082352,32.49679947,20.8837204,21.933683
39.47603989,32.49355698,20.85658646,21.159223
38.47214508,32.490242,20.82227325,20.385156
37.46871185,32.48615265,20.78158379,19.61079
36.46611404,32.48210526,20.73513412,18.849699
35.46423721,32.47816849,20.68376923,18.11099
34.46276474,32.47437286,20.62811279,17.377618
33.46199036,32.47093201,20.56863213,16.644914
32.46141815,32.46757507,20.50563812,15.919763
31.46128654,32.46448517,20.43922997,15.223175
30.46135139,32.4618721,20.36960983,14.534251
29.46211815,32.45967865,20.29720688,13.846241
28.46267128,32.45809174,20.22214127,13.173168
27.46372604,32.45677948,20.14455414,12.530369
26.46478844,32.4564743,20.06447601,11.889944
25.46664429,32.45656967,19.98222923,11.25509
24.46849251,32.45761108,19.89839745,10.658741
23.47095108,32.45947266,19.81345367,10.070279
22.4727211,32.46125412,19.72693634,9.485137
21.47476006,32.46444702,19.63928604,8.943191
20.47706604,32.4686203,19.55048752,8.409744
19.47887421,32.47330856,19.46066666,7.886744
18.48027802,32.47881699,19.36923409,7.408678
17.48291397,32.48482895,19.27680206,6.934867
16.4847908,32.49294662,19.18449783,6.495613
15.48696804,32.49978638,19.09148979,6.081793
14.48916912,32.50975418,18.99934578,5.682485
13.49040794,32.51966095,18.90743256,5.333595
12.49302197,32.52994156,18.81632233,4.990708
11.49499321,32.54143143,18.72752762,4.700314
10.49784565,32.55296707,18.64199829,4.424009
9.49948978,32.56534576,18.56041908,4.188981
8.50157452,32.57768631,18.48376083,3.978056
7.50394297,32.58913422,18.41310501,3.799188
6.50382519,32.60043716,18.34862709,3.648193
5.50646925,32.61125183,18.29135513,3.524121
4.50635767,32.61996841,18.2419529,3.425829
3.50708413,32.62841797,18.20133591,3.349364
2.507447,32.63490677,18.16942978,3.294962
1.50705707,32.64081955,18.1470623,3.2589
0.50609118,32.64328003,18.133255,3.242641
41.48439407,31.49947548,20.90067863,22.114236
40.4775238,31.49658394,20.87750244,21.30653
39.47223663,31.49324226,20.84483528,20.51666
38.46788406,31.48940849,20.80408478,19.740928
37.46445084,31.48537254,20.75621796,18.966209
36.46189117,31.48121643,20.70216179,18.191858
35.46022415,31.47748375,20.6429882,17.427719
34.45912552,31.4739151,20.57926941,16.687929
33.45839691,31.47050095,20.51133537,15.955055
32.4581871,31.46725655,20.43945313,15.222686
31.45840836,31.46463394,20.36387062,14.497878
30.45918846,31.46259308,20.2848587,13.803392
29.45999146,31.46093559,20.20266914,13.115934
28.46154785,31.4598999,20.1176548,12.42981
27.46266174,31.45950127,20.02964973,11.76289
26.46452332,31.45951462,19.93874168,11.123906
25.46713829,31.46104622,19.84573555,10.487509
24.46981621,31.46310043,19.75078011,9.862397
23.47247696,31.46548843,19.65394402,9.275307
22.47538948,31.46973991,19.55578995,8.692695
21.47782326,31.4738102,19.45568275,8.124036
20.48108482,31.4796772,19.35463333,7.596885
19.4829731,31.48591042,19.25156593,7.072446
18.48593903,31.49362183,19.14686203,6.581963
17.48867798,31.50292969,19.04145813,6.120166
16.49182129,31.51126289,18.93482399,5.667126
15.49457455,31.52383614,18.82913589,5.271104
14.49619007,31.53438187,18.72227287,4.882009
13.4997654,31.54737854,18.6163826,4.54169
12.50168324,31.56132317,18.51153564,4.227442
11.50568867,31.57636452,18.40968132,3.950267
10.50767517,31.59214973,18.31161499,3.711621
9.51033115,31.60716629,18.21735001,3.501524
8.51340675,31.62302589,18.12952805,3.332852
7.51448393,31.63787079,18.04795647,3.17462
6.51651764,31.65240288,17.97401237,3.048067
5.51651144,31.66630745,17.90908813,2.930268
4.51698065,31.67842865,17.8524704,2.842767
3.51656628,31.68811035,17.80499649,2.765146
2.516289,31.69685745,17.76892471,2.714807
1.51471424,31.70328522,17.74317741,2.677688
0.51354343,31.70844078,17.72811317,2.664375
41.48199844,30.49954414,20.89877129,21.520113
40.47395325,30.4964447,20.87093163,20.705892
39.46823883,30.49286461,20.83227158,19.89455
38.46349335,30.48886681,20.78458786,19.09905
37.45997238,30.48457909,20.72909927,18.321477
36.45785904,30.48073387,20.66726685,17.547374
35.45631409,30.47707939,20.60005188,16.773695
34.45539474,30.47346497,20.52784157,16.006629
33.45515823,30.47024727,20.45106506,15.265565
32.45544815,30.4675045,20.36998367,14.533801
31.45619202,30.46519279,20.28487015,13.802846
30.45736694,30.46370506,20.19615555,13.079175
29.45909309,30.46278763,20.10404968,12.387397
28.46062851,30.46216965,20.00843811,11.702137
27.4629097,30.46239281,19.9095974,11.018804
26.46558189,30.4639225,19.80786896,10.361385
25.4686203,30.46570206,19.70325851,9.72723
24.47220802,30.46862602,19.59630203,9.095995
23.47612762,30.47312164,19.48762131,8.48719
22.47945404,30.47776604,19.37674904,7.909354
21.48297882,30.48463821,19.26403618,7.336729
20.48628807,30.49146271,19.14912605,6.795856
19.48959351,30.50040817,19.03213501,6.283723
18.49359703,30.51014709,18.91333961,5.780663
17.49744987,30.52076721,18.79299736,5.33188
16.50176048,30.53488541,18.6729393,4.899761
15.50475693,30.54732704,18.55164528,4.505075
14.50765228,30.56319046,18.42980194,4.152026
13.51129913,30.57847214,18.30774307,3.82928
12.51610756,30.59715843,18.1888237,3.56572
11.51942825,30.61528015,18.07245636,3.321215
10.52303028,30.63411522,17.95986748,3.12019
9.52628517,30.6549511,17.85347939,2.919391
8.5282259,30.67350006,17.75244713,2.75973
7.53054667,30.69337654,17.65963936,2.600747
6.53117847,30.71186638,17.57562828,2.481142
5.53272963,30.72792244,17.5014267,2.361401
4.53105974,30.74299812,17.4374752,2.279363
3.52965522,30.75661087,17.38320732,2.202113
2.52866483,30.76638985,17.34075165,2.15597
1.52627552,30.77507401,17.31191254,2.118973
0.52424264,30.78136253,17.29656982,2.106746
41.47933197,29.49956322,20.89681053,20.925764
40.47026825,29.49638367,20.86401176,20.110469
39.46382523,29.49257088,20.8189373,19.296386
38.45880508,29.48822403,20.7637558,18.48279
37.45578003,29.48427582,20.70051384,17.682304
36.45376968,29.48041725,20.6306572,16.902895
35.45258331,29.47656441,20.5548954,16.129098
34.4523735,29.47343445,20.47395515,15.356502
33.45239258,29.4703846,20.38802528,14.587645
32.45312119,29.46794701,20.29743195,13.845467
31.45458984,29.46640205,20.202631,13.115707
30.45654106,29.46518707,20.10394669,12.387024
29.45837402,29.46465302,20.00125885,11.664873
28.46134186,29.46516609,19.89491844,10.977168
27.46403694,29.46614456,19.78489685,10.296044
26.467659,29.46755028,19.67128944,9.617514
25.47185135,29.47100449,19.55477905,8.9717
24.47649384,29.47560501,19.435709,8.346038
23.48116302,29.48040009,19.31394005,7.723929
22.48550034,29.4876976,19.19001961,7.137002
21.48982811,29.49519157,19.06334496,6.5739
20.49383163,29.50476646,18.93362045,6.019912
19.49925041,29.51511383,18.80166435,5.51825
18.50420189,29.52814293,18.66800117,5.036571
17.50951958,29.5430088,18.53274536,4.588658
16.51384354,29.55705452,18.39546967,4.190232
15.51866817,29.57428551,18.25712204,3.819451
14.52367592,29.59243584,18.11841011,3.522482
13.52908516,29.61404037,17.98072243,3.242621
12.53440189,29.63529587,17.84554291,2.998616
11.53866673,29.65889931,17.71329308,2.763968
10.54394817,29.68302345,17.58627701,2.561046
9.54676914,29.70624161,17.46417618,2.368356
8.54961681,29.7311821,17.34950256,2.207685
7.5522604,29.75465584,17.24410439,2.055609
6.55346632,29.77746582,17.14936447,1.935417
5.55214977,29.79821205,17.06482697,1.821733
4.55092144,29.8150692,16.99088287,1.739706
3.54854584,29.83313942,16.93133926,1.665672
2.54455113,29.84678841,16.88172913,1.622907
1.54320538,29.85653305,16.84820938,1.586008
41.47665405,28.49956512,20.89471054,20.344179
40.46649933,28.49638176,20.85677338,19.515415
39.45901871,28.49207878,20.80469131,18.699497
38.45464706,28.48809052,20.7419014,17.886232
37.45150375,28.48409653,20.67079544,17.073671
36.4497261,28.47993279,20.59227753,16.267631
35.44952393,28.47672653,20.5078125,15.48542
34.44944763,28.47341537,20.41773605,14.712646
33.45016098,28.4708252,20.3223629,13.941134
32.45150757,28.46893883,20.22212601,13.172247
31.45373535,28.46762657,20.11743736,12.429486
30.45611,28.46709824,20.00831223,11.70216
29.45920753,28.46738625,19.89494324,10.976972
28.46240425,28.46824646,19.77718163,10.25847
27.46653748,28.46973038,19.65527534,9.576188
26.47130394,28.47288322,19.52965164,8.90255
25.47657204,28.47725868,19.40076828,8.233558
24.48194695,28.48220825,19.26848984,7.602581
23.48808098,28.49002266,19.13360977,6.990917
22.49329185,28.49737358,18.99482918,6.385678
21.49943542,28.50694466,18.85293961,5.830486
20.50500679,28.5188427,18.7080574,5.296739
19.51159668,28.53233337,18.56011963,4.789524
18.5179348,28.54653168,18.40939331,4.342198
17.52407455,28.56407166,18.25686264,3.923928
16.53100204,28.5832653,18.10192299,3.576343
15.53748417,28.60489273,17.94555283,3.261078
14.54460526,28.62814713,17.78839302,2.969769
13.55147362,28.65257835,17.63249588,2.702252
12.55935192,28.67870522,17.47889709,2.451337
11.56517887,28.70723534,17.33012199,2.229811
10.56948948,28.7354641,17.18397903,2.021214
9.57628345,28.76586723,17.04702377,1.84325
8.57803822,28.79569435,16.91742516,1.678242
7.58071184,28.8247509,16.79570389,1.539175
6.58335257,28.85095787,16.68790054,1.416219
5.58087206,28.87769699,16.59459686,1.309253
4.57817841,28.90174484,16.51229477,1.230174
3.57373095,28.91833878,16.44099426,1.158561
2.56672478,28.93815994,16.38503265,1.119532
1.56464517,28.95007133,16.34358978,1.087427
41.4739151,27.49969101,20.89255714,19.793121
40.46216202,27.49616814,20.84898186,18.9417
39.4546814,27.49207306,20.78970909,18.106325
38.45024872,27.4880085,20.71928596,17.289554
37.44723892,27.48363113,20.63964653,16.476537
36.44638062,27.48018074,20.55246735,15.665674
35.44618988,27.47657585,20.4588356,14.856864
34.44711304,27.47388649,20.35937309,14.069663
33.44846725,27.47159576,20.25441742,13.29882
32.45066452,27.47011185,20.1444397,12.529759
31.45313072,27.46923256,20.02939224,11.762245
30.4568882,27.46943855,19.90974045,11.019269
29.46021652,27.46984673,19.78494644,10.295709
28.46512032,27.47171021,19.65552902,9.576367
27.47014427,27.47462082,19.52149773,8.86474
26.47630882,27.47857857,19.38338089,8.192791
25.48257637,27.48359871,19.24121094,7.530404
24.48975945,27.49071121,19.0953598,6.877315
23.49635124,27.49794006,18.94519234,6.269571
22.50343323,27.50827599,18.79089546,5.682587
21.511549,27.52025414,18.63268471,5.116309
20.51961899,27.53319168,18.47093201,4.612359
19.52732468,27.54908943,18.3054924,4.139001
18.53503799,27.56830978,18.1364994,3.727442
17.54508591,27.58758545,17.96437263,3.374055
16.55376053,27.61235619,17.79143143,3.033047
15.56199741,27.63759804,17.61496735,2.731596
14.57204056,27.66604042,17.43811989,2.433974
13.58100414,27.69586945,17.26061249,2.180691
12.59078026,27.72826004,17.08691406,1.929755
11.5986557,27.76106644,16.91671753,1.718235
10.60619068,27.79737473,16.7523365,1.512838
9.61257076,27.83257103,16.59436798,1.344491
8.61963558,27.8683567,16.44968796,1.179521
7.61723471,27.90600395,16.31245995,1.052339
6.62317753,27.93898582,16.18598747,0.932252
5.62337208,27.96647644,16.08045578,0.832835
4.61465645,27.9956913,15.98987961,0.751105
3.60939431,28.02270317,15.91174984,0.689273
2.59596682,28.04489326,15.84647846,0.651829
1.59346712,28.06527138,15.80064201,0.62784
41.47109222,26.49972725,20.89022827,19.248283
40.45788574,26.49614716,20.84067535,18.394107
39.45048523,26.49214363,20.77423477,17.543825
38.44569778,26.48762131,20.69563293,16.701416
37.44347,26.4839077,20.6073513,15.880201
36.4427948,26.47997475,20.51110268,15.068927
35.44366455,26.47702789,20.40816689,14.259602
34.44519043,26.47447014,20.29917145,13.451349
33.44746017,26.47265625,20.18450356,12.65858
32.45022202,26.47149086,20.064394,11.889431
31.45378876,26.4711647,19.9389019,11.123758
30.45788193,26.47127342,19.8078804,10.360387
29.46316338,26.4731102,19.67177391,9.618028
28.46847534,26.47541428,19.53014374,8.902133
27.47537804,26.47930717,19.38365555,8.192495
26.48243332,26.48398018,19.23209763,7.492365
25.49061394,26.49051857,19.07597542,6.837211
24.49838066,26.49779129,18.91478539,6.19546
23.5076561,26.50771713,18.74854088,5.572152
22.5168438,26.51923943,18.57731628,5.00762
21.52689934,26.53376579,18.40194511,4.473808
20.53709412,26.55031967,18.22200203,3.988461
19.54713249,26.56926537,18.03754425,3.582978
18.55848503,26.59034729,17.84839439,3.200278
17.56982994,26.61591721,17.65604019,2.856323
16.58171272,26.64211655,17.45990562,2.523602
15.59498215,26.67388535,17.26298904,2.219618
14.60580635,26.70665932,17.06199074,1.938028
13.61915302,26.74365234,16.86221313,1.679834
12.63287926,26.78334045,16.66573334,1.447968
11.64150906,26.8215847,16.46834183,1.233468
10.65555191,26.86548805,16.28245544,1.046518
9.66416073,26.91059685,16.10613251,0.877883
8.66999817,26.95175171,15.93419361,0.729076
7.67590475,26.99448776,15.78082561,0.602069
6.67264986,27.04130936,15.6424675,0.492257
5.67431068,27.07317543,15.51113415,0.402004
4.67069483,27.10423279,15.40592957,0.320303
3.6597662,27.13528442,15.31894112,0.262327
2.64535999,27.16281891,15.24423885,0.228826
1.63229799,27.18889809,15.19636726,0.208361
0.61797619,27.20246887,15.16470718,0.201984
41.46777344,25.4995327,20.88757896,18.703935
40.45399475,25.4963131,20.83205223,17.848165
39.44586945,25.49194145,20.75811577,16.996713
38.44155884,25.48785019,20.67116737,16.148145
37.43954468,25.48367882,20.57394218,15.302143
36.43987274,25.48046112,20.4684639,14.474078
35.4413681,25.47739983,20.35604286,13.664108
34.44370651,25.47529793,20.23730659,12.856844
33.44708633,25.47380829,20.11263275,12.051569
32.45077133,25.47297859,19.98217392,11.254459
31.45497131,25.47267342,19.84560394,10.486388
30.46060944,25.47404671,19.70335007,9.726789
29.4665699,25.47568321,19.55507469,8.970733
28.47376442,25.47950554,19.40112305,8.232967
27.48143387,25.4836483,19.24115944,7.529571
26.49077225,25.49031067,19.07591057,6.837196
25.4995327,25.49707031,18.9042778,6.158307
24.51071358,25.50628471,18.72667885,5.534636
23.52118492,25.51804352,18.54356003,4.936237
22.533535,25.53242111,18.35495949,4.375331
21.5457592,25.54836655,18.16027832,3.895539
20.55961037,25.56769943,17.9609623,3.469453
19.5721817,25.58949661,17.75531578,3.075274
18.58600235,25.61428261,17.54325867,2.708467
17.60168266,25.64316177,17.32665825,2.354094
16.61956978,25.67649841,17.10826492,2.039143
15.63484859,25.71324348,16.88604355,1.729795
14.6499176,25.75416183,16.65955925,1.465688
13.66765118,25.79628944,16.43017197,1.20892
12.68777561,25.84147835,16.20550919,0.993947
11.70139027,25.89471054,15.98479748,0.785235
10.7237854,25.94293213,15.76996613,0.617009
9.73010826,25.99628067,15.56899452,0.447281
8.73548126,26.05518723,15.37579155,0.321563
7.74745035,26.10226631,15.18741035,0.203199
6.74439669,26.14531517,15.01491547,0.105319
5.74396849,26.20057487,14.86634636,0.031611
4.73693705,26.23643494,14.72584534,-0.031182
3.73189235,26.27078056,14.61782742,-0.082791
2.71373081,26.30942154,14.54565716,-0.117069
1.68379688,26.33041,14.46505165,-0.128016
0.67920429,26.35394478,14.43412113,-0.129477
41.46458435,24.49986839,20.88485527,18.187328
40.44969559,24.4962616,20.8230896,17.308555
39.44157791,24.49214554,20.74153519,16.450077
38.43728256,24.48773575,20.6459713,15.600967
37.43613434,24.48411369,20.53965187,14.754764
36.43702316,24.48057175,20.4246788,13.910433
35.43959427,24.47822571,20.30258942,13.074939
34.44286346,24.47614861,20.17394638,12.263052
33.44711304,24.47514534,20.03897667,11.45926
32.45204544,24.47435188,19.8975811,10.657738
31.45782661,24.47519112,19.74997711,9.861476
30.46443939,24.47633743,19.59602547,9.095436
29.47147369,24.47979546,19.43560028,8.344988
28.47974968,24.48322487,19.26808357,7.601554
27.48981094,24.489151,19.09435844,6.87638
26.50035286,24.49520874,18.91380501,6.195328
25.51158142,24.50411415,18.72575188,5.534201
24.52477837,24.51527405,18.53117371,4.901801
23.53917122,24.52870369,18.33016014,4.342339
22.55405426,24.5446434,18.12265396,3.83565
21.56922722,24.56466484,17.90815735,3.392031
20.58584213,24.5848732,17.68537712,2.988819
19.60373497,24.60964775,17.45545578,2.593056
18.62256622,24.64091682,17.21988487,2.2327
17.64165306,24.67499733,16.97715569,1.891124
16.66568565,24.71297646,16.73120499,1.573435
15.6854353,24.75488281,16.47995758,1.284698
14.70969772,24.80360222,16.22582245,1.019685
13.73005772,24.85906982,15.96699333,0.787658
12.75915432,24.91341591,15.71048832,0.575841
11.77820396,24.97093582,15.45362568,0.390731
10.80270195,25.03778076,15.2103157,0.229792
9.81771183,25.09263802,14.95763016,0.08857
8.83586884,25.15498543,14.72092342,-0.025861
7.83484316,25.23006058,14.50545406,-0.121372
6.84708214,25.29466248,14.28870773,-0.185489
5.83838558,25.35973358,14.101408,-0.244452
4.83263063,25.41773605,13.9340477,-0.277867
3.81936598,25.46816444,13.80799675,-0.316514
2.80595183,25.49979973,13.70338631,-0.342167
1.7640065,25.54915047,13.65250778,-0.35468
41.46136856,23.49999428,20.8822155,17.693691
40.4454689,23.49653244,20.81400108,16.804843
39.43704605,23.49233818,20.72451591,15.922243
38.43333435,23.48804855,20.6201458,15.056135
37.4325676,23.48410034,20.50449181,14.2079
36.43461227,23.48134804,20.3799305,13.364799
35.43819809,23.47889137,20.24811363,12.523767
34.44234467,23.47736359,20.10921097,11.685215
33.44808578,23.47615814,19.96357155,10.86798
32.45424271,23.47651863,19.81124306,10.069407
31.46164131,23.47718239,19.65211105,9.275066
30.46946716,23.47973061,19.48629189,8.486464
29.47782326,23.48230362,19.31268883,7.722796
28.4879055,23.48776817,19.1315918,6.989355
27.4994545,23.49341011,18.94267082,6.269287
26.51201439,23.50141144,18.74543381,5.57193
25.52676392,23.51109505,18.54037476,4.936637
24.54356194,23.52449417,18.3286171,4.343633
23.55919647,23.53998947,18.10795784,3.80755
22.57906342,23.55779076,17.87948227,3.365025
