//X,Y,Z,C2M_signed_distances
-24.56236458,-22.5265522,18.14486885,3.819626
-25.5438633,-22.51298523,18.37501717,4.363532
-26.52742958,-22.50312233,18.59549713,5.000093
-27.51251221,-22.49360466,18.80611801,5.676397
-28.498909,-22.4865036,19.00815773,6.380526
-29.48776245,-22.48232651,19.2011776,7.133927
-30.47627449,-22.47859383,19.38524437,7.906983
-31.46743584,-22.47722626,19.56147003,8.69164
-32.45929718,-22.47584915,19.72914124,9.485263
-33.45190048,-22.47602463,19.88912773,10.309375
-34.44606018,-22.47720146,20.04162216,11.144357
-35.44042206,-22.47911644,20.18663597,11.981803
-36.43601608,-22.48129654,20.32440948,12.821704
-37.43414688,-22.48449135,20.4542942,13.675632
-38.43438721,-22.48812675,20.57458687,14.549399
-39.43864822,-22.49230957,20.68304253,15.429957
-40.44797134,-22.49643517,20.77544212,16.314435
-41.46344376,-22.50038338,20.84623528,17.203254
41.46516418,-23.49897957,20.85170364,17.695001
40.45140076,-23.4951992,20.78751945,16.808087
39.44308853,-23.49029732,20.7040062,15.925527
38.43866348,-23.48558426,20.60622215,15.05878
37.43751144,-23.48109055,20.49710846,14.210155
36.4378891,-23.47776985,20.37816429,13.365557
35.44105148,-23.47504425,20.25115204,12.524135
34.44445419,-23.47385979,20.1168766,11.685121
33.44921112,-23.47312164,19.97544861,10.867057
32.45466995,-23.47351646,19.82694244,10.06769
31.46028709,-23.47501945,19.67123795,9.271996
30.46641922,-23.47776985,19.50821114,8.481554
29.47351456,-23.48216438,19.33736801,7.717253
28.48070335,-23.48898888,19.15828514,6.981372
27.48916054,-23.49664307,18.97062683,6.258874
26.49809265,-23.50746536,18.7743206,5.559291
25.50856972,-23.52104187,18.56992531,4.921828
24.51885223,-23.53847313,18.35744667,4.32484
23.52883339,-23.55740547,18.13475418,3.786366
22.54027748,-23.58163452,17.90326118,3.344617
21.55119133,-23.61040306,17.6617775,2.914865
20.56317139,-23.64481544,17.41135788,2.508668
19.57423592,-23.68320084,17.15166855,2.133817
18.58372688,-23.72964668,16.88213921,1.773925
17.59582901,-23.78131676,16.60394669,1.454755
16.60547829,-23.84232521,16.32337189,1.148495
15.60775566,-23.90609932,16.03156853,0.881465
14.6173811,-23.97537804,15.73558044,0.632519
13.61061192,-24.05552292,15.43336296,0.426684
12.61256599,-24.1370163,15.12542343,0.240163
11.61315536,-24.21720123,14.83473778,0.082562
10.58777142,-24.30047798,14.53959846,-0.06244
9.57687569,-24.38720322,14.23815918,-0.160931
8.57604599,-24.4651413,13.9827795,-0.260181
7.51524878,-24.54037285,13.726264,-0.348326
6.47013426,-24.62595177,13.4577446,-0.373317
5.4607482,-24.69853401,13.24642181,-0.407899
4.39114809,-24.75837326,13.06558609,-0.435245
3.35986233,-24.78734779,12.89296532,-0.456238
2.31411123,-24.80581093,12.78589535,-0.487823
1.23701477,-24.84496689,12.73209095,-0.48492
0.19191349,-24.8472805,12.65770054,-0.474791
-0.80353117,-24.78584862,12.65328121,-0.510261
-1.9330833,-24.78201675,12.74660778,-0.507352
-2.93226838,-24.75102806,12.79464436,-0.485589
-3.96729422,-24.68685913,12.89097214,-0.459117
-4.98115206,-24.62908173,13.04892159,-0.441955
-6.01949739,-24.56577873,13.25594902,-0.412879
-7.00318336,-24.4733448,13.43023396,-0.364194
-7.99244213,-24.38819885,13.69679165,-0.334521
-8.97484589,-24.29729271,13.98467827,-0.280115
-9.96828938,-24.19767761,14.26591969,-0.204358
-10.93517017,-24.10356903,14.54818153,-0.099741
-11.89853764,-24.0406723,14.8647728,0.032915
-12.87022305,-23.962183,15.16177845,0.195007
-13.83697033,-23.90242004,15.45985699,0.391759
-14.79796505,-23.84391594,15.75303745,0.613647
-15.76478958,-23.78581429,16.04608536,0.860499
-16.73137474,-23.73614311,16.33309364,1.135314
-17.69644547,-23.69339561,16.61678696,1.439862
-18.66960335,-23.65639877,16.89535332,1.763262
-19.64275742,-23.6231041,17.16241074,2.127963
-20.61985207,-23.59358597,17.4191246,2.503262
-21.59679794,-23.57079697,17.66735268,2.914645
-22.57639694,-23.5492363,17.90593338,3.34447
-23.55735779,-23.53168297,18.13581657,3.787557
-24.5427475,-23.51776505,18.3562355,4.328265
-25.52685928,-23.50636673,18.56651115,4.925938
-26.51371193,-23.49605751,18.76860809,5.564528
-27.50022888,-23.48873711,18.9628849,6.263546
-28.49056053,-23.48378944,19.14933777,6.986669
-29.47984886,-23.47925758,19.3270092,7.721142
-30.47137451,-23.47699356,19.49757385,8.485703
-31.46364021,-23.47490883,19.66060638,9.275013
-32.456707,-23.47461891,19.81651878,10.070168
-33.45122528,-23.47511482,19.96515083,10.869888
-34.44621277,-23.47652626,20.10659599,11.687958
-35.44189453,-23.47851944,20.2412281,12.526534
-36.43862915,-23.48116112,20.36901665,13.367764
-37.4372406,-23.48423576,20.48927689,14.211363
-38.43839264,-23.4880619,20.60056305,15.059634
-39.44330978,-23.49209976,20.7003231,15.926457
-40.45209885,-23.49640274,20.78486633,16.809163
-41.46700287,-23.49980354,20.84916306,17.696881
41.46860886,-24.49877548,20.85451317,18.188832
40.45530319,-24.49482155,20.79641151,17.311349
39.44773865,-24.49046707,20.72062111,16.453406
38.44252014,-24.48551941,20.63114357,15.603553
37.44065094,-24.48122787,20.53046989,14.756656
36.44104004,-24.47746277,20.4207077,13.911998
35.44256973,-24.47489357,20.30327034,13.075507
34.44564056,-24.47279358,20.17888832,12.263371
33.44918823,-24.47216606,20.04790306,11.4592
32.45323944,-24.47190285,19.91012001,10.657135
31.45853806,-24.4728241,19.76616859,9.860211
30.46320152,-24.47496986,19.61567307,9.092759
29.46854401,-24.47816467,19.45780563,8.340228
28.4750309,-24.48285484,19.29271317,7.595377
27.4815979,-24.49022102,19.12020874,6.867726
26.48936081,-24.49875259,18.94007492,6.185284
25.49788475,-24.51004601,18.75295067,5.522247
24.50557709,-24.52372932,18.55784798,4.886625
23.51514244,-24.54156494,18.35590363,4.325931
22.52279282,-24.56157494,18.14510727,3.816755
21.53193092,-24.58559418,17.92577934,3.376089
20.54255676,-24.61330032,17.69954491,2.976339
19.55067825,-24.64758682,17.46632195,2.583215
18.55997467,-24.68471527,17.22529793,2.228293
17.56612968,-24.72717285,16.9763031,1.889254
16.57492065,-24.77709007,16.7227211,1.581794
15.58064365,-24.83143616,16.46655083,1.298064
14.58185482,-24.88940239,16.20438957,1.039855
13.58644676,-24.95245743,15.94305992,0.809486
12.57867432,-25.01653671,15.6791544,0.603558
11.58404922,-25.08272552,15.42945099,0.416697
10.56587505,-25.15156364,15.18235683,0.256894
9.55307865,-25.21565819,14.93845177,0.110283
8.53699017,-25.27874947,14.71189499,-0.003957
7.50523043,-25.35118675,14.49782372,-0.100907
6.48655844,-25.40417862,14.28565598,-0.170601
5.4471364,-25.45340347,14.09032059,-0.230551
4.42102671,-25.49595833,13.92014599,-0.269775
3.38885689,-25.53876495,13.80579185,-0.305455
2.33917689,-25.57526016,13.71551132,-0.32749
1.30750799,-25.57328033,13.61725616,-0.335144
0.2852295,-25.5569706,13.57579041,-0.361282
-0.77226257,-25.58545303,13.63335037,-0.352937
-1.79793179,-25.53827095,13.63986588,-0.351749
-2.83671379,-25.49892426,13.69129372,-0.336035
-3.84272671,-25.47126007,13.80384254,-0.301398
-4.87670994,-25.41870308,13.93848801,-0.276724
-5.86977005,-25.34465408,14.07793999,-0.231972
-6.8778882,-25.27257156,14.27829456,-0.191242
-7.86619234,-25.20882607,14.48636818,-0.119477
-8.86635303,-25.14800072,14.71467781,-0.0218
-9.83101845,-25.08436966,14.95700169,0.081428
-10.82450199,-25.01815605,15.21587563,0.21446
-11.79635429,-24.94688416,15.45678139,0.373144
-12.7740345,-24.89322472,15.71738052,0.558079
-13.74865437,-24.8342762,15.97015762,0.773656
-14.72161007,-24.78199196,16.22768021,1.004326
-15.69658661,-24.73834991,16.48707581,1.274353
-16.67101097,-24.69788742,16.74260712,1.559158
-17.64728355,-24.66050339,16.99415016,1.876127
-18.62421417,-24.62804222,17.2401886,2.21483
-19.60499382,-24.60038757,17.47972488,2.576066
-20.58622742,-24.57520866,17.71086502,2.969989
-21.56916046,-24.55390358,17.93424606,3.371469
-22.55270576,-24.53642273,18.15055084,3.816027
-23.53881645,-24.52130699,18.35891533,4.326153
-24.52451515,-24.50866699,18.55890083,4.888929
-25.51354218,-24.49821281,18.75162506,5.525751
-26.50122833,-24.49041176,18.93688011,6.188713
-27.49209404,-24.48437309,19.11528778,6.872135
-28.48255539,-24.47966766,19.28578568,7.599749
-29.47459602,-24.47665405,19.44973183,8.344431
-30.4671402,-24.47399712,19.60694885,9.095533
-31.46076965,-24.47356796,19.75774956,9.86264
-32.45558167,-24.47336197,19.90188026,10.659959
-33.45062256,-24.4743042,20.03923798,11.46159
-34.44697571,-24.47585678,20.17009163,12.266136
-35.4434433,-24.47811317,20.29460526,13.077858
-36.44118118,-24.48076439,20.41276169,13.91367
-37.44081497,-24.48410225,20.52367783,14.75811
-38.44261551,-24.487854,20.62590218,15.604688
-39.44771194,-24.49196053,20.71709442,16.45404
-40.45612335,-24.49618721,20.79416084,17.312654
-41.47089005,-24.49991417,20.85214424,18.191264
41.47221756,-25.49854851,20.85727882,18.70575
40.45961761,-25.49464035,20.80547523,17.850755
39.45160675,-25.49023056,20.73664284,16.999654
38.44688797,-25.48583603,20.65521622,16.150868
37.44409943,-25.4810791,20.56304932,15.304099
36.44384384,-25.47760963,20.46214485,14.475437
35.44522476,-25.47456932,20.35413933,13.665486
34.44687271,-25.47229576,20.23968697,12.857659
33.44935608,-25.47090912,20.11873436,12.051738
32.45290375,-25.47050285,19.99162483,11.254589
31.45683289,-25.47101974,19.85870552,10.486575
30.46124268,-25.47216415,19.7200222,9.725576
29.46535873,-25.47482681,19.57492828,8.968294
28.4702816,-25.47902489,19.42326736,8.228513
27.47611237,-25.48398781,19.26491928,7.523589
26.48267937,-25.49110985,19.1005249,6.828615
25.48822784,-25.50050735,18.92910194,6.148466
24.49584579,-25.5125618,18.75165367,5.523469
23.50190163,-25.52638054,18.56698036,4.92254
22.51012039,-25.54330635,18.37607574,4.361024
21.51663208,-25.56345749,18.17772484,3.8811
20.52482414,-25.58804703,17.97311211,3.457391
19.53232002,-25.61562157,17.7626152,3.06922
18.53958511,-25.64748192,17.54717636,2.705741
17.54438591,-25.68436432,17.32569504,2.356536
16.54914474,-25.72404099,17.09760284,2.046217
15.55809307,-25.76686668,16.86993408,1.744864
14.55646801,-25.81368446,16.63926697,1.481469
13.5588789,-25.86333084,16.40723228,1.228318
12.56114388,-25.91984749,16.18249893,1.018881
11.55172348,-25.97656631,15.96039963,0.811224
10.55189323,-26.02854538,15.74804878,0.639913
9.53829956,-26.08100891,15.5457058,0.474478
8.516572,-26.14059067,15.3501482,0.345324
7.5076108,-26.18806267,15.16262341,0.231793
6.49159861,-26.22829819,14.99902916,0.128133
5.46238613,-26.26766586,14.84928131,0.046154
4.43752337,-26.30763054,14.71922874,-0.015245
3.41153359,-26.32786369,14.60357475,-0.06253
2.38583064,-26.33302116,14.508811,-0.103254
1.36016715,-26.35272026,14.46919441,-0.125222
0.32927543,-26.36697006,14.45625114,-0.139108
-0.70926243,-26.3413105,14.42016983,-0.130603
-1.69972217,-26.32366943,14.46509933,-0.132814
-2.75651693,-26.30347443,14.53295422,-0.108319
-3.75454783,-26.27919197,14.60112381,-0.057859
-4.76384544,-26.22214317,14.70830059,-0.033035
-5.77088404,-26.17555237,14.85614014,0.024592
-6.77673912,-26.13947487,15.01827908,0.102518
-7.76771784,-26.08515739,15.18545723,0.19837
-8.76385975,-26.03061295,15.36690903,0.312656
-9.75040436,-25.97706223,15.56135559,0.446453
-10.73365784,-25.92691231,15.77255249,0.60277
-11.71513748,-25.87824821,15.99503517,0.775148
-12.69864845,-25.82014084,16.21528053,0.973291
-13.67883778,-25.77310562,16.44325638,1.191648
-14.66249466,-25.73419571,16.67217255,1.448255
-15.64284897,-25.69688606,16.89765739,1.718008
-16.62345886,-25.6605854,17.12276077,2.021966
-17.60550499,-25.62920952,17.34673309,2.33373
-18.58976173,-25.60206795,17.56623268,2.69039
-19.57330513,-25.5765934,17.77943802,3.054577
-20.55975151,-25.55671501,17.98787308,3.448326
-21.54604912,-25.5384388,18.18908119,3.875439
-22.53360558,-25.52326775,18.38422203,4.358008
-23.52184105,-25.5109539,18.57287216,4.923158
-24.51117134,-25.49923897,18.75477219,5.523548
-25.50114632,-25.49119186,18.93050385,6.150729
-26.49235535,-25.48453903,19.09960938,6.831255
-27.48402977,-25.479702,19.26241493,7.526648
-28.47720718,-25.47619629,19.41877365,8.231975
-29.4700222,-25.4732151,19.56891632,8.971128
-30.46401024,-25.47222519,19.71365356,9.727926
-31.45909119,-25.47161484,19.85227394,10.488779
-32.45465469,-25.47232246,19.98494339,11.257097
-33.45096207,-25.47364998,20.11159325,12.054587
-34.44820786,-25.47527122,20.2320385,12.860357
-35.44543076,-25.47757149,20.34667969,13.667239
-36.4440918,-25.48043633,20.4554882,14.477075
-37.44438934,-25.48384094,20.55727959,15.305652
-38.44689941,-25.48767662,20.65065193,16.151692
-39.45203018,-25.49184608,20.73351097,17.000751
-40.46051788,-25.49627304,20.80302811,17.852286
-41.47413254,-25.50008774,20.85474396,18.708072
41.47558212,-26.49855995,20.86011505,19.250049
40.46340561,-26.49484444,20.81422043,18.396842
39.45623398,-26.490242,20.75243378,17.546668
38.45106125,-26.48571968,20.67861366,16.704059
37.44817734,-26.48146057,20.59498405,15.882071
36.44703674,-26.47743034,20.50291252,15.070559
35.44745255,-26.47432518,20.40391159,14.260929
34.44897842,-26.47186089,20.29900742,13.452849
33.45059586,-26.46998405,20.18806458,12.659387
32.45301819,-26.46909714,20.07123184,11.890085
31.45609665,-26.46875954,19.94893837,11.12394
30.45949936,-26.46946716,19.82145119,10.360231
29.46310234,-26.47144127,19.68820381,9.616295
28.46729279,-26.47440147,19.54931068,8.899588
27.47175789,-26.47868538,19.40482903,8.187876
26.47691536,-26.48448944,19.25479317,7.486551
25.48160553,-26.49141121,19.09881973,6.828684
24.48704338,-26.50131416,18.93701553,6.186477
23.49324417,-26.51283836,18.76988029,5.561789
22.49853706,-26.5273819,18.5965271,4.996951
21.50468826,-26.54415131,18.4174614,4.462453
20.51011848,-26.56391716,18.23201561,3.979496
19.51755333,-26.58796692,18.04263496,3.578191
18.52287865,-26.61420631,17.84916687,3.19827
17.52718353,-26.64333534,17.65066147,2.85906
16.53165054,-26.67599869,17.44868469,2.53062
15.53555775,-26.71304893,17.2457428,2.232923
14.53979206,-26.75157166,17.04387474,1.953295
13.53677177,-26.79396629,16.84025764,1.699215
12.53821182,-26.83516312,16.63821793,1.466913
11.53754425,-26.8794384,16.44351196,1.25821
10.53271008,-26.92712402,16.25902557,1.067854
9.52573776,-26.97276688,16.083992,0.901156
8.5094471,-27.01499748,15.90856171,0.750619
7.50941563,-27.05511475,15.75424194,0.627756
6.48972464,-27.09225273,15.61876678,0.507772
5.47619152,-27.12414742,15.49577141,0.417138
4.45475674,-27.14684105,15.38410568,0.339053
3.43892884,-27.1699028,15.30002308,0.279208
2.41670203,-27.19324112,15.24282646,0.237723
1.39581072,-27.19255829,15.18829918,0.205588
0.37721244,-27.18642807,15.15921402,0.185117
-0.63807362,-27.18796158,15.17264557,0.187197
-1.66020977,-27.17698288,15.19639111,0.197508
-2.67254615,-27.15321922,15.23819542,0.229536
-3.68291783,-27.11733627,15.29962635,0.265606
-4.68731022,-27.09996414,15.40494919,0.323752
-5.69660616,-27.0596714,15.51784325,0.393887
-6.69760418,-27.00906754,15.6359787,0.471843
-7.69402981,-26.97681427,15.7821846,0.591485
-8.68690586,-26.93390274,15.94097519,0.712127
-9.67953491,-26.89251137,16.11214447,0.863104
-10.66697025,-26.8457489,16.28997803,1.027716
-11.65387344,-26.79981041,16.47947693,1.211927
-12.63870716,-26.76169014,16.68081665,1.423084
-13.62930489,-26.7257328,16.88191414,1.657247
-14.61471844,-26.68861008,17.07928467,1.918324
-15.60081291,-26.65587044,17.27899551,2.199506
-16.58597755,-26.62710571,17.47946548,2.504546
-17.57360268,-26.60198593,17.67844009,2.836299
-18.55992508,-26.57747078,17.87311172,3.179359
-19.54834557,-26.55728149,18.06513214,3.560827
-20.53765488,-26.53836441,18.25118446,3.967191
-21.52753258,-26.52378273,18.43227196,4.456265
-22.51743317,-26.51178551,18.60799026,4.993855
-23.50823784,-26.50039673,18.77832794,5.560587
-24.49954033,-26.49176025,18.94376564,6.186906
-25.49223518,-26.4841671,19.10311127,6.830113
-26.48468399,-26.47921753,19.25663948,7.488124
-27.47848129,-26.47547531,19.40476418,8.190568
-28.47195816,-26.4725399,19.54737854,8.901804
-29.46720314,-26.47097397,19.68491554,9.619072
-30.46181297,-26.47005844,19.81707382,10.362463
-31.45807266,-26.47011566,19.94418716,11.126349
-32.45426178,-26.4710598,20.06581879,11.892266
-33.45194244,-26.47271729,20.18209076,12.662066
-34.44979095,-26.47478676,20.29254532,13.455095
-35.44803619,-26.47719193,20.39768028,14.262922
-36.4474144,-26.48017311,20.49718475,15.072297
-37.44828415,-26.48361206,20.59007072,15.883248
-38.45114136,-26.48765182,20.67482567,16.705064
-39.45663834,-26.49197388,20.74946404,17.54782
-40.46481323,-26.49628448,20.81135941,18.398677
-41.47704697,-26.50003624,20.85706329,19.251941
41.4788475,-27.49896431,20.86248779,19.795531
40.46760941,-27.49501038,20.82253838,18.94443
39.46045303,-27.49065399,20.76773834,18.109267
38.45539856,-27.48575974,20.70157242,17.29164
37.45227432,-27.48151016,20.62611198,16.478814
36.45050812,-27.47763443,20.54272652,15.667148
35.45024109,-27.47411156,20.45256805,14.858411
34.45103836,-27.47144508,20.35657692,14.071057
33.45246124,-27.469347,20.25533676,13.300466
32.45382309,-27.46775055,20.14858437,12.530722
31.45614243,-27.46697807,20.03678703,11.763119
30.45882607,-27.46703339,19.92014503,11.018952
29.46150017,-27.46795082,19.79823685,10.295075
28.46512985,-27.4703331,19.67143822,9.574872
27.46880913,-27.47336578,19.53996086,8.861934
26.4723053,-27.47755814,19.40328217,8.187839
25.47710037,-27.48395157,19.26214981,7.524842
24.48088837,-27.49092293,19.11575508,6.868889
23.48543358,-27.50096321,18.96414566,6.261807
22.48967361,-27.51226997,18.80705261,5.673558
21.49543571,-27.52698326,18.64557838,5.108559
20.49932098,-27.54339409,18.47896004,4.606105
19.50496101,-27.56137466,18.30827713,4.134797
18.50925255,-27.58401108,18.13461494,3.727679
17.51354599,-27.60874748,17.9581089,3.377919
16.51640511,-27.63519096,17.77853394,3.040954
15.51950455,-27.66514778,17.59719086,2.743656
14.5225811,-27.69865036,17.41778183,2.449848
13.52277756,-27.73020363,17.23846817,2.196986
12.52392387,-27.76594353,17.06320572,1.946349
11.5200634,-27.80403328,16.89224625,1.739357
10.51964664,-27.84111023,16.7271843,1.532866
9.51382542,-27.87737465,16.57091141,1.365513
8.50752163,-27.91171074,16.42352676,1.201069
7.50108194,-27.94534302,16.28857994,1.070665
6.49142981,-27.9763279,16.16819191,0.949185
5.48082733,-28.00163841,16.06254959,0.846153
4.46757889,-28.02733421,15.97475243,0.766875
3.45438099,-28.04471779,15.89838314,0.699398
2.43985295,-28.05117798,15.83600044,0.650695
1.42923892,-28.0623455,15.80471325,0.616152
0.41603258,-28.06362724,15.79256821,0.594916
-0.60361302,-28.05583,15.78928757,0.595836
-1.61244059,-28.04766846,15.80789566,0.605436
-2.6152668,-28.02854156,15.8509407,0.640036
-3.63167214,-28.00982857,15.91764641,0.679884
-4.63630152,-27.9774456,15.98833275,0.74356
-5.63563681,-27.95102501,16.08560371,0.821647
-6.63702202,-27.92506981,16.20282745,0.917983
-7.63513327,-27.88365173,16.32296944,1.032948
-8.63275242,-27.84947586,16.45983887,1.164159
-9.62339497,-27.81391144,16.60742188,1.324554
-10.61332035,-27.77703857,16.7680378,1.49064
-11.60720348,-27.74312782,16.93705177,1.694231
-12.59880161,-27.71117401,17.10810852,1.908247
-13.58763409,-27.67892838,17.28193855,2.157372
-14.57776356,-27.64966965,17.45913315,2.414356
-15.56711578,-27.62170601,17.63615799,2.710315
-16.55668449,-27.5975666,17.81369972,3.011032
-17.54762268,-27.57424164,17.98948669,3.35243
-18.53790474,-27.55619049,18.16342354,3.706564
-19.52799034,-27.5386219,18.33414459,4.120002
-20.52005959,-27.52369881,18.5016613,4.595281
-21.51214409,-27.51078415,18.6639328,5.101162
-22.50442886,-27.4996109,18.82188034,5.670187
-23.49721336,-27.49087524,18.97580719,6.259684
-24.49064064,-27.48427391,19.1248436,6.869374
-25.48483276,-27.47898483,19.26899529,7.52585
-26.47934914,-27.47448921,19.4078598,8.190093
-27.47354317,-27.47135544,19.5421505,8.863744
-28.46927452,-27.46965408,19.67193985,9.577406
-29.46442413,-27.46840668,19.7969799,10.297541
-30.46120071,-27.46825981,19.91758347,11.021541
-31.4575367,-27.46883583,20.03335381,11.765371
-32.45492935,-27.46979141,20.14452362,12.53283
-33.45308304,-27.47200775,20.250597,13.302556
-34.45165253,-27.47424889,20.35151291,14.073191
-35.45069122,-27.4769001,20.44738388,14.860296
-36.45096207,-27.47999191,20.53779411,15.668738
-37.4522934,-27.48373222,20.62185097,16.479983
-38.45576859,-27.48772049,20.69805717,17.292956
-39.46086884,-27.49198532,20.76462555,18.110244
-40.46928024,-27.49635887,20.81927109,18.946424
-41.47967911,-27.49993896,20.85923958,19.796617
41.48116684,-28.49893379,20.86450958,20.346242
40.47202301,-28.49561119,20.83023262,19.518283
39.46443939,-28.49060059,20.78247643,18.702041
38.45952988,-28.4862957,20.7237854,17.888356
37.45624924,-28.48167229,20.65641975,17.075496
36.4540596,-28.47759056,20.58142662,16.269223
35.45323563,-28.47418594,20.49985504,15.486384
34.45334244,-28.47095299,20.41265678,14.713918
33.45436096,-28.46869469,20.32050133,13.942953
32.4553566,-28.46661568,20.22371864,13.173684
31.45658875,-28.46535492,20.12205315,12.430051
30.4588356,-28.46508026,20.01583099,11.702769
29.46119118,-28.46538162,19.90509415,10.97695
28.46340561,-28.46645355,19.789711,10.257646
27.46680832,-28.4688015,19.67033195,9.575167
26.46973801,-28.47187424,19.54676247,8.899857
25.47304153,-28.47631073,19.41880608,8.229177
24.47671318,-28.48305893,19.28688431,7.598147
23.47957993,-28.48994827,19.14998055,6.983449
22.48379898,-28.4998188,19.0088253,6.37943
21.48687553,-28.51067924,18.8629055,5.824183
20.49170876,-28.52413559,18.7135849,5.291884
19.49520874,-28.54091644,18.56125832,4.787569
18.49915504,-28.55799866,18.40559006,4.343065
17.50183868,-28.57751846,18.24752426,3.927386
16.50454712,-28.60101128,18.08804131,3.585781
15.50752354,-28.6247673,17.92723083,3.272979
14.51021004,-28.6491127,17.76742935,2.984091
13.51015854,-28.67933655,17.61054802,2.718944
12.51030636,-28.7083149,17.45566177,2.470929
11.51014519,-28.73854828,17.30432129,2.250152
10.50826263,-28.76866722,17.15942383,2.043898
9.5065918,-28.79769135,17.02271461,1.862355
8.50267601,-28.82654762,16.89548302,1.6979
7.49482632,-28.85248566,16.77669334,1.552335
6.49132299,-28.8770771,16.67072296,1.430587
5.48348713,-28.90110016,16.5786972,1.321766
4.47389936,-28.91987228,16.49783325,1.239718
3.46736813,-28.9340992,16.43350601,1.165166
2.45929384,-28.94560242,16.38846016,1.115758
1.44845927,-28.94683456,16.35473824,1.073783
0.43976587,-28.94841385,16.34137726,1.055503
-0.5714249,-28.94735909,16.34493446,1.056887
-1.57606244,-28.93581963,16.36206055,1.063778
-2.58514762,-28.9245739,16.40030289,1.103685
-3.58696008,-28.90678978,16.4526577,1.142726
-4.5921073,-28.88751793,16.52528763,1.216347
-5.59616709,-28.86356926,16.60795784,1.294854
-6.59406662,-28.8345108,16.70146561,1.3989
-7.59076262,-28.80893326,16.81427383,1.518984
-8.58854103,-28.77985573,16.93569946,1.658271
-9.58289814,-28.74918747,17.06545258,1.821173
-10.57769585,-28.72269058,17.2063942,2.000693
-11.57067871,-28.6931839,17.35214615,2.207587
-12.56489563,-28.66350937,17.50174141,2.428036
-13.55710411,-28.63767433,17.65556908,2.679835
-14.5498333,-28.61445427,17.81198883,2.948145
-15.54130745,-28.59137535,17.96907997,3.240073
-16.53349686,-28.56949806,18.12632751,3.554302
-17.52684021,-28.55294228,18.28330994,3.905203
-18.51964569,-28.53533745,18.43705559,4.324241
-19.51294708,-28.52108955,18.58919716,4.772542
-20.5062542,-28.50935364,18.73828316,5.282744
-21.49981117,-28.4987812,18.88406754,5.818208
-22.49353218,-28.49007797,19.02640724,6.375354
-23.48897552,-28.48354912,19.16466904,6.982768
-24.48418617,-28.47743988,19.29821777,7.597558
-25.47919846,-28.47308159,19.42751694,8.230381
-26.4746666,-28.47000694,19.5529747,8.901558
-27.47061729,-28.46813774,19.6745472,9.577149
-28.4666214,-28.46660614,19.79203415,10.259979
-29.46380615,-28.46630096,19.90545654,10.979481
-30.46054459,-28.46667671,20.01462555,11.705106
-31.45822334,-28.4674263,20.11980247,12.432639
-32.45605469,-28.46915436,20.2206974,13.175816
-33.45471954,-28.47115135,20.31708908,13.944723
-34.45383072,-28.47370338,20.40888405,14.715947
-35.4538765,-28.47673988,20.49572563,15.488378
-36.45450211,-28.4799614,20.57730484,16.270879
-37.45684052,-28.48390007,20.65262985,17.077146
-38.46016312,-28.48805046,20.72032547,17.889766
-39.46582031,-28.49214935,20.77901459,18.703925
-40.47301483,-28.4963131,20.82668877,19.519345
-41.48257446,-28.49972343,20.8613739,20.347714
41.4838829,-29.49881744,20.86644173,20.927705
40.47570038,-29.49562073,20.83717537,20.113255
39.46884155,-29.4913578,20.79628944,19.298757
38.46386337,-29.48668671,20.74513626,18.485179
37.46014023,-29.48203659,20.68558121,17.68374
36.45802689,-29.47797394,20.61881447,16.904162
35.45655441,-29.47411346,20.54568863,16.130263
34.45635223,-29.47102737,20.46723938,15.357812
33.45639801,-29.4677906,20.38399315,14.588856
32.45739365,-29.46582985,20.29650497,13.847106
31.45819473,-29.46410751,20.20472908,13.116791
30.45949745,-29.46278954,20.10850525,12.387573
29.46124649,-29.46259499,20.00826645,11.665451
28.46337509,-29.46299553,19.90420151,10.976896
27.46525192,-29.46415901,19.79625702,10.2952
26.46793175,-29.46668816,19.68477249,9.616621
25.47064018,-29.46993256,19.56965637,8.969378
24.47305298,-29.47388077,19.45051384,8.341531
23.47628593,-29.48059845,19.32795715,7.719738
22.47849464,-29.48740005,19.20109367,7.131391
21.48180008,-29.49670219,19.07078362,6.569339
20.48451233,-29.50767899,18.93714714,6.016281
19.48763084,-29.52008438,18.80021667,5.516481
18.49128151,-29.53456879,18.66181374,5.03665
17.49341011,-29.55014038,18.52153397,4.590644
16.4955883,-29.56765366,18.37938881,4.19666
15.4978714,-29.58712959,18.23737907,3.830112
14.49917698,-29.61070824,18.09669113,3.538826
13.5011797,-29.63144112,17.95668983,3.258261
12.50142574,-29.65644264,17.82035446,3.017827
11.50063133,-29.68035316,17.68725586,2.782227
10.50104618,-29.7055397,17.56031799,2.580974
9.49936485,-29.72986221,17.44069672,2.386618
8.49749851,-29.75267029,17.32918167,2.224127
7.49415541,-29.77511597,17.22705841,2.069094
6.48898649,-29.79592896,17.13431931,1.947212
5.4835391,-29.81447411,17.05143356,1.831645
4.48129511,-29.82965851,16.98190689,1.747804
3.47545481,-29.84173012,16.92633247,1.668252
2.47074938,-29.84934616,16.88484192,1.617754
1.46598029,-29.85452843,16.86121941,1.575199
0.4544597,-29.85673332,16.84819031,1.558041
-0.54663122,-29.85383606,16.84884453,1.558191
-1.55147576,-29.84666634,16.86845779,1.567477
-2.5575459,-29.83457947,16.89999199,1.60564
-3.55950403,-29.82289696,16.94717216,1.647696
-4.56149912,-29.80671883,17.00729179,1.727723
-5.56231403,-29.78750801,17.08128166,1.804476
-6.55964756,-29.76538658,17.16788673,1.91783
-7.55994749,-29.74069405,17.26416206,2.035326
-8.55750275,-29.71726036,17.37049294,2.187164
-9.55340862,-29.6934185,17.48575401,2.347987
-10.54942894,-29.66894913,17.60728455,2.539742
-11.54469776,-29.64617348,17.73542023,2.743501
-12.53816319,-29.6235466,17.86878967,2.977817
-13.53407955,-29.60171509,18.00465202,3.222112
-14.52783394,-29.5803051,18.14167213,3.502448
-15.52210522,-29.56262398,18.28090286,3.800875
-16.51621819,-29.5466671,18.4205265,4.173405
-17.51090622,-29.53017616,18.55860138,4.570494
-18.50499725,-29.51707458,18.69599915,5.020679
-19.50103569,-29.50626373,18.83111763,5.505613
-20.49570656,-29.49610329,18.96306419,6.00891
-21.49013329,-29.48785782,19.09324837,6.564035
-22.48646355,-29.48104477,19.22055054,7.128843
-23.48270798,-29.47570038,19.34379005,7.718723
-24.47867775,-29.47174263,19.46352005,8.342638
-25.47514915,-29.46835709,19.57958984,8.970581
-26.47159386,-29.46603966,19.69216537,9.618413
-27.46791458,-29.4644413,19.80166626,10.297125
-28.46601105,-29.46433449,19.90772057,10.979648
-29.46314049,-29.46414757,20.00979042,11.66789
-30.46128845,-29.46505737,20.10836601,12.39043
-31.45915604,-29.46651649,20.20327568,13.11912
-32.4578743,-29.46811867,20.29441452,13.84898
-33.45679092,-29.47051239,20.38158989,14.590875
-34.45682907,-29.47356224,20.46449089,15.359717
-35.4571228,-29.47652435,20.54257011,16.132138
-36.45864487,-29.48023033,20.61557579,16.905961
-37.46107864,-29.48431206,20.68228531,17.685761
-38.46505737,-29.48840141,20.74170494,18.48702
-39.47017288,-29.49234009,20.79272461,19.300263
-40.47674179,-29.49627304,20.83393288,20.114345
-41.48542404,-29.49968719,20.86351967,20.929339
41.48646164,-30.49868393,20.868433,21.521949
40.47898483,-30.49580765,20.84370232,20.708436
39.47355652,-30.49187851,20.80902863,19.897233
38.46802521,-30.48735428,20.76523018,19.100839
37.46473694,-30.48307991,20.71333122,18.323556
36.46203613,-30.47856522,20.6544838,17.548711
35.46061707,-30.47480583,20.58975029,16.775178
34.45937729,-30.47094536,20.51991844,16.007691
33.45914459,-30.46780968,20.44551468,15.266633
32.45923996,-30.46496391,20.36676788,14.534739
31.46031761,-30.46314049,20.28416252,13.804429
30.4611187,-30.46152496,20.19799232,13.080313
29.46217155,-30.46014786,20.10791588,12.387618
28.46360588,-30.45986176,20.01443672,11.702504
27.4652729,-30.46024513,19.9177475,11.018796
26.46701622,-30.46150208,19.81770325,10.360266
25.46898651,-30.46361351,19.7146244,9.72552
24.47105789,-30.46720314,19.60834885,9.093641
23.4730854,-30.47106743,19.49820328,8.483107
22.47577667,-30.4770546,19.38514709,7.905952
21.47761154,-30.48386574,19.2690506,7.332443
20.47992134,-30.49212646,19.15003204,6.792867
19.48223495,-30.5018692,19.02856827,6.281538
18.48461533,-30.51276588,18.90523911,5.779769
17.48698616,-30.52614784,18.78119278,5.334123
16.48918724,-30.53982735,18.65618324,4.902525
15.49019718,-30.55653954,18.53083992,4.513611
14.4920969,-30.57180214,18.40541267,4.162172
13.49350452,-30.591959,18.28324699,3.845223
12.49427319,-30.61036301,18.16276741,3.582325
11.49505234,-30.63116837,18.04647255,3.340967
10.49455166,-30.65005684,17.93454933,3.138497
9.49431992,-30.67057991,17.82962418,2.936862
8.49318409,-30.69037628,17.73213005,2.776292
7.49137354,-30.70819664,17.64236259,2.614183
6.48966312,-30.72476959,17.56149864,2.49193
5.48635483,-30.73875999,17.48983765,2.370092
4.48382378,-30.75231934,17.42927742,2.285489
3.48150611,-30.76196861,17.38058472,2.204331
2.47883129,-30.76990318,17.34573174,2.152477
1.47333753,-30.77518082,17.32279968,2.111946
0.47221142,-30.77523422,17.31154633,2.09229
-0.53226614,-30.7724762,17.31373405,2.090734
-1.53425145,-30.76742363,17.32995605,2.103536
-2.53603244,-30.75966263,17.36004639,2.14179
-3.53881454,-30.74820137,17.40027618,2.187778
-4.5390687,-30.73461723,17.45293045,2.266703
-5.53812361,-30.71958542,17.51760674,2.34745
-6.5360446,-30.70209503,17.59442902,2.464641
-7.53643465,-30.68294525,17.68107796,2.582106
-8.53352356,-30.66321564,17.77385902,2.741289
-9.53048038,-30.64389229,17.87480164,2.900613
-10.52842712,-30.62394905,17.98210907,3.101607
-11.5238409,-30.60438919,18.09422302,3.302198
-12.52007866,-30.58616066,18.21096039,3.547063
-13.51498127,-30.56793594,18.33070374,3.811702
-14.51207638,-30.5529232,18.4524765,4.136738
-15.50656319,-30.5370369,18.5742588,4.489831
-16.50321579,-30.52269745,18.69711494,4.883726
-17.49893761,-30.51162148,18.81954765,5.318878
-18.49522591,-30.50129128,18.9405899,5.769028
-19.49136353,-30.49142838,19.05963326,6.273041
-20.4876442,-30.48410988,19.17687225,6.78704
-21.4839592,-30.47778893,19.292099,7.329054
-22.48094177,-30.47292328,19.40481758,7.904181
-23.47808266,-30.46901703,19.5144062,8.483471
-24.47513962,-30.46582794,19.62107658,9.094657
-25.47233963,-30.4638176,19.72478485,9.72753
-26.46941948,-30.46200752,19.82568359,10.362055
-27.46756744,-30.46185303,19.92380714,11.021496
-28.46533966,-30.4616394,20.01848793,11.704992
-29.46379471,-30.46248817,20.11016464,12.390454
-30.46212006,-30.46371841,20.19857216,13.082581
-31.46115685,-30.46545601,20.28376579,13.806619
-32.4599762,-30.46761894,20.36558342,14.537064
-33.4597702,-30.47038269,20.44384384,15.268804
-34.46014404,-30.47345161,20.51791954,16.009858
-35.46113586,-30.47693634,20.58749199,16.77686
-36.4627533,-30.48077583,20.65198326,17.550584
-37.46577072,-30.48480988,20.71045876,18.325345
-38.46972656,-30.48885345,20.76198196,19.102973
-39.47457504,-30.49269295,20.80587578,19.898408
-40.4804039,-30.496521,20.8408947,20.709888
-41.48810196,-30.49965668,20.86561775,21.523732
41.48879623,-31.49902153,20.87024689,22.116292
40.48242569,-31.49592209,20.84996223,21.308888
39.47718048,-31.49234772,20.82085419,20.518941
38.47259521,-31.48823929,20.78380394,19.74298
37.46897888,-31.48405457,20.73924065,18.968171
36.46641159,-31.47983551,20.6882,18.19391
35.46438599,-31.47537041,20.63158226,17.429004
34.46343231,-31.47172928,20.57025146,16.689254
33.46222687,-31.46784592,20.50445175,15.955804
32.46196747,-31.4649601,20.43443298,15.223722
31.46210098,-31.4621048,20.36063576,14.498618
30.4630909,-31.46033287,20.28377533,13.804399
29.46363831,-31.45857048,20.20377159,13.116729
28.46473122,-31.4574585,20.12051392,12.430242
27.46573067,-31.45721626,20.03446007,11.76313
26.46707726,-31.45745087,19.94554901,11.123919
25.46849632,-31.45877075,19.85381699,10.486515
24.47019196,-31.46103859,19.75913429,9.860776
23.47173691,-31.46387482,19.66156769,9.273289
22.47334099,-31.46745682,19.56093788,8.689384
21.47544098,-31.472929,19.45812225,8.121837
20.47711563,-31.4790535,19.35315895,7.594341
19.47877693,-31.48605156,19.2460022,7.070889
18.48047066,-31.49477577,19.13729858,6.581542
17.48285675,-31.50434303,19.02788544,6.120698
16.48387146,-31.51602936,18.91787529,5.670927
15.48603916,-31.52723312,18.80759048,5.275267
14.48675823,-31.54241943,18.69880295,4.89119
13.48816013,-31.55614471,18.59052658,4.553112
12.48913097,-31.57188797,18.48529053,4.241385
11.48936176,-31.58728981,18.38284492,3.965713
10.49085617,-31.60395813,18.28582382,3.728464
9.4902792,-31.61882782,18.19369888,3.518642
8.4907608,-31.6338501,18.10802269,3.34792
7.48949862,-31.6493206,18.02972794,3.189314
6.48929262,-31.66254044,17.95934296,3.059391
5.48819208,-31.67516899,17.89819336,2.93985
4.48668623,-31.68383026,17.84513474,2.847312
3.4857688,-31.69305038,17.80327797,2.767865
2.48355246,-31.69879532,17.77157402,2.712529
1.48210728,-31.70316315,17.75091553,2.672654
0.4815644,-31.70444679,17.74251366,2.652548
-0.51984525,-31.70218658,17.74546432,2.650267
-1.52106535,-31.69813538,17.75945091,2.665082
-2.52206135,-31.69208527,17.78491783,2.703354
-3.5219667,-31.68287277,17.82141304,2.752999
-4.52193642,-31.67215919,17.86846161,2.830397
-5.52225161,-31.65954208,17.92510986,2.917449
-6.51970768,-31.64585495,17.991539,3.03418
-7.51799059,-31.63167,18.06738663,3.159982
-8.51643372,-31.61502075,18.14964676,3.316362
-9.515028,-31.59864235,18.23765564,3.485233
-10.51131058,-31.5830822,18.33163452,3.695965
-11.50921917,-31.56785393,18.43043137,3.935637
-12.50515842,-31.55310059,18.53242493,4.214258
-13.50238609,-31.53962898,18.6376133,4.529395
-14.49948215,-31.52535248,18.74356079,4.870029
-15.4964056,-31.51394844,18.85095787,5.258406
-16.49333,-31.5039196,18.95895386,5.656905
-17.49103737,-31.49375343,19.06571198,6.109661
-18.48748207,-31.48534966,19.17160988,6.572405
-19.48490906,-31.4795208,19.27674675,7.065534
-20.48214531,-31.47335243,19.37970734,7.590076
-21.47984505,-31.46894646,19.48104858,8.119419
-22.47745132,-31.46505165,19.58005905,8.688937
-23.47494698,-31.46225548,19.67687225,9.27334
-24.47289085,-31.46077156,19.77147484,9.861904
-25.47063828,-31.45902634,19.86364174,10.48795
-26.46902466,-31.4590683,19.9534359,11.126373
-27.46730995,-31.45897484,20.04039192,11.765512
-28.46603012,-31.4598484,20.12477303,12.432914
-29.46462059,-31.46077919,20.20639992,13.119051
-30.46394348,-31.46253204,20.28524017,13.806614
-31.46307564,-31.4648571,20.36111259,14.501265
-32.46282578,-31.4674511,20.43397522,15.226039
-33.46300888,-31.47041702,20.50340271,15.958102
-34.46395111,-31.4739151,20.56887817,16.691083
-35.46521378,-31.47769737,20.62992096,17.431108
-36.46735382,-31.48163033,20.68626976,18.195708
-37.47041702,-31.48557854,20.73684692,18.970157
-38.47412872,-31.48940277,20.78094292,19.744788
-39.47848129,-31.49328041,20.8181572,20.520431
-40.48381424,-31.49682426,20.84743118,21.310437
-41.49066544,-31.49980545,20.86754417,22.118154
41.49096298,-32.49904633,20.87180328,22.720508
40.48538589,-32.49642181,20.85558891,21.935836
39.48086929,-32.492836,20.83171844,21.161475
38.47685242,-32.48929977,20.80085754,20.387313
37.47317123,-32.48503876,20.76333809,19.612771
36.47043991,-32.48072815,20.71977615,18.851401
35.46844482,-32.47668839,20.67103195,18.112561
34.46696091,-32.47233963,20.61778259,17.378907
33.46595383,-32.46869659,20.56036949,16.645988
32.46495056,-32.46481705,20.49893951,15.9201
31.46491623,-32.46208954,20.43401909,15.223767
30.46505356,-32.45922852,20.36603355,14.534773
29.4659481,-32.45731354,20.29541969,13.847106
28.46622276,-32.45547104,20.2219696,13.173486
27.46710777,-32.4545517,20.14608765,12.530841
26.46789742,-32.45397949,20.06766891,11.890035
25.46916771,-32.45459366,19.98670006,11.255094
24.47021675,-32.4555397,19.90316582,10.65805
23.47146606,-32.45721817,19.81725121,10.068699
22.47251511,-32.45927429,19.72894096,9.48334
21.47390938,-32.46239471,19.63850212,8.941039
20.47558403,-32.46687317,19.54652023,8.407688
19.47696495,-32.47219849,19.45289612,7.885364
18.47818184,-32.47820663,19.35791397,7.408095
17.47985268,-32.48572922,19.26240349,6.935668
16.4808445,-32.49341202,19.16603851,6.496658
15.48243141,-32.50393677,19.07030296,6.08672
14.48349762,-32.51327515,18.97462845,5.687912
13.4844656,-32.52488327,18.88071823,5.341625
12.48554611,-32.53673172,18.78883934,5.000618
11.48663807,-32.5488205,18.70002174,4.711928
10.4870472,-32.56089401,18.61507607,4.43612
9.48850632,-32.57382965,18.53592682,4.202356
8.48789215,-32.5858078,18.46168709,3.99035
7.4890976,-32.59701157,18.39326477,3.811676
6.48880053,-32.60813522,18.33226395,3.659522
5.48938704,-32.61736679,18.27884674,3.533237
4.48900604,-32.62631989,18.23441315,3.43285
3.48873305,-32.63182068,18.19779587,3.352703
2.48785996,-32.63829041,18.17068481,3.295653
1.48844993,-32.64068604,18.15239525,3.255487
0.48850876,-32.6420784,18.14512444,3.23489
-0.51132762,-32.64040756,18.14818573,3.232474
-1.51223397,-32.63740921,18.16086769,3.248865
-2.51120138,-32.63203049,18.18276978,3.285821
-3.51095843,-32.62548065,18.21516609,3.339875
-4.51115036,-32.61746216,18.25627136,3.416993
-5.50896311,-32.60786057,18.30571365,3.514573
-6.50755835,-32.59651566,18.36370468,3.638668
-7.50614882,-32.58383942,18.42886734,3.788341
-8.50418186,-32.57247925,18.501091,3.967487
-9.50201035,-32.55979156,18.57833862,4.178462
-10.50038338,-32.54757309,18.66000748,4.414445
-11.4976635,-32.53517914,18.74559212,4.690599
-12.49554539,-32.52338791,18.83452797,4.981473
-13.4933157,-32.51261902,18.92559433,5.324622
-14.49074459,-32.50324631,19.01848412,5.673846
-15.48894596,-32.49365234,19.11185074,6.074186
-16.48720169,-32.48539734,19.20505905,6.487375
-17.48441505,-32.47886658,19.29829407,6.928226
-18.48248291,-32.47288513,19.39098358,7.402788
-19.48063469,-32.46697617,19.48215866,7.880728
-20.47923088,-32.46400452,19.5721283,8.405917
-21.4767704,-32.46059036,19.66030884,8.940223
-22.47540283,-32.45832443,19.74716568,9.483712
-23.47356415,-32.45697403,19.83192825,10.069489
-24.47157478,-32.45545578,19.91502571,10.658686
-25.47061157,-32.4557991,19.9963398,11.256927
-26.46926498,-32.45592117,20.07514572,11.892447
-27.46829605,-32.45710754,20.15189552,12.533634
-28.46720695,-32.45793533,20.22625732,13.17607
-29.46659279,-32.45978546,20.29843903,13.849412
-30.46575165,-32.46188736,20.36805725,14.537237
-31.46572876,-32.46447372,20.43508148,15.22609
-32.46593094,-32.46774673,20.49914932,15.92287
-33.4666481,-32.47093582,20.55997276,16.648013
-34.46780396,-32.47483444,20.61697006,17.381202
-35.46952438,-32.47858429,20.6697731,18.114598
-36.4717598,-32.48277283,20.71818352,18.853688
-37.47494507,-32.48639679,20.76125908,19.614921
-38.47811127,-32.490345,20.79843521,20.388854
-39.48212051,-32.49386978,20.82946587,21.163009
-40.48738098,-32.49731827,20.85331726,21.937854
-41.49274063,-32.49992371,20.86910629,22.722344
41.49292374,-33.49925232,20.87325478,23.351436
40.48832703,-33.49692917,20.860672,22.578296
39.48444366,-33.49384308,20.8417263,21.80498
38.48068619,-33.4900589,20.81648064,21.03189
37.47729492,-33.48625183,20.78549576,20.27399
36.47419739,-33.48192978,20.74907494,19.535842
35.47222137,-33.47779846,20.70774841,18.80239
34.47087097,-33.47391891,20.66230965,18.069423
33.46945953,-33.46954346,20.61300468,17.34386
32.46870041,-33.4658432,20.56012917,16.645902
31.46793556,-33.46205902,20.5038414,15.955726
30.46793747,-33.45928574,20.44477081,15.266803
29.46784782,-33.45616531,20.38302612,14.588692
28.46851921,-33.45408249,20.31879044,13.942588
27.46909904,-33.45259857,20.25251007,13.300359
26.46986771,-33.45151901,20.18416405,12.659973
25.47049713,-33.45055008,20.11352921,12.052404
24.47133636,-33.45065308,20.04070282,11.459861
23.47203064,-33.45092773,19.96586037,10.867821
22.47293663,-33.45192719,19.88929367,10.307719
21.47399139,-33.45373917,19.81095123,9.7681
20.4751358,-33.45604324,19.73112297,9.23002
19.47611427,-33.45912552,19.65005875,8.731866
18.4770565,-33.46359253,19.56804085,8.249268
17.47813416,-33.46860504,19.48524857,7.774918
16.47926903,-33.47486877,19.40222359,7.348988
15.48006725,-33.48097992,19.31881523,6.92629
14.48169422,-33.48890305,19.23673439,6.539996
13.48225307,-33.49670029,19.15555954,6.17802
12.48359108,-33.50580215,19.07624054,5.832515
11.48456192,-33.51457214,18.99978065,5.532467
10.48548508,-33.5245018,18.92703629,5.237227
9.48640537,-33.53384781,18.85808372,4.99553
8.4875803,-33.5435257,18.79419899,4.759642
7.48796558,-33.55237579,18.7353878,4.568834
6.48963356,-33.56086731,18.68299484,4.39125
5.48951626,-33.56842041,18.63717461,4.250334
4.49105501,-33.57459641,18.59843063,4.127071
3.49072313,-33.58073807,18.56786919,4.035221
2.49121261,-33.58431625,18.54393387,3.962839
1.49271238,-33.58705521,18.52889061,3.917233
0.49375996,-33.58706665,18.52272415,3.891634
-0.50544399,-33.58673477,18.52579117,3.890491
-1.5052315,-33.58404541,18.53703308,3.911743
-2.50455403,-33.58041382,18.55659866,3.955709
-3.50370789,-33.57533646,18.58412361,4.025545
-4.50208664,-33.56863022,18.61949539,4.115973
-5.50093842,-33.56071472,18.66236115,4.236727
-6.49902344,-33.5526619,18.71278954,4.376622
-7.49750233,-33.54384995,18.76960564,4.553382
-8.49612141,-33.53421783,18.8312645,4.74392
-9.4941349,-33.52484131,18.89782143,4.98016
-10.49258518,-33.51513672,18.96839333,5.222294
-11.4907999,-33.50640488,19.04219437,5.519358
-12.48836231,-33.49740982,19.11885071,5.819614
-13.48741913,-33.48937988,19.19741249,6.167693
-14.4856205,-33.48192978,19.27687836,6.530522
-15.48386574,-33.47566986,19.35745811,6.919498
-16.48283195,-33.46990967,19.43791389,7.34328
-17.4806385,-33.46453476,19.51798248,7.770344
-18.47936821,-33.46043015,19.59801102,8.246136
-19.47863007,-33.45803452,19.67706108,8.731112
-20.47698784,-33.45503235,19.75433159,9.229515
-21.4758358,-33.45341873,19.83080101,9.768468
-22.47452736,-33.45249176,19.90583038,10.308893
-23.47317505,-33.45150375,19.97952461,10.868928
-24.47226906,-33.45217133,20.05187416,11.461681
-25.47119141,-33.45231247,20.12239075,12.054322
-26.47060013,-33.45366669,20.19122314,12.662208
-27.46998978,-33.4550972,20.25803185,13.302954
-28.46933937,-33.45691299,20.32303047,13.945384
-29.46868324,-33.45911026,20.38598633,14.591539
-30.46860313,-33.46168518,20.44675827,15.269063
-31.4688797,-33.46498108,20.50505066,15.958537
-32.46950531,-33.46817398,20.56058884,16.648166
-33.47057724,-33.47217941,20.61301041,17.346513
-34.47205734,-33.47596741,20.66169739,18.071668
-35.47371674,-33.4798851,20.70661163,18.804864
-36.47615051,-33.48378372,20.74751282,19.538474
-37.4789772,-33.48778534,20.78361893,20.276193
-38.48203278,-33.49125671,20.81442261,21.033612
-39.48589706,-33.49464035,20.83961868,21.806525
-40.4903717,-33.4977951,20.85835838,22.580331
-41.49472809,-33.50006485,20.87050056,23.353236
41.4947052,-34.49952698,20.87454796,23.992803
40.49098587,-34.49761581,20.8653183,23.220708
39.48757553,-34.49462509,20.85076904,22.450145
38.48398972,-34.49101257,20.83075142,21.695401
37.48098755,-34.48736954,20.80555153,20.959203
36.47850418,-34.48345566,20.77581596,20.22597
35.4762001,-34.47929764,20.7417469,19.492536
34.47446442,-34.47514725,20.70355797,18.76793
33.47337341,-34.4711647,20.66207695,18.069255
32.47218704,-34.46699905,20.61742401,17.378818
31.47158813,-34.46307373,20.56978035,16.68888
30.47089195,-34.45933533,20.51917076,16.0076
29.47113419,-34.45637131,20.4662571,15.357865
28.47098541,-34.45328903,20.41112518,14.713855
27.47159958,-34.45110703,20.35406494,14.071145
26.47204208,-34.44905472,20.29530716,13.452936
25.47255516,-34.44775772,20.2346344,12.858433
24.47275352,-34.44633865,20.17204285,12.263811
23.47335625,-34.44556427,20.10791016,11.685683
22.47419548,-34.44569778,20.04234695,11.142423
21.4748745,-34.44587708,19.97534943,10.599941
20.47563744,-34.44680023,19.90719604,10.076581
19.4764576,-34.44857407,19.83798981,9.588215
18.47708321,-34.45086288,19.76792717,9.100852
17.47766685,-34.45401001,19.69721222,8.647338
16.47874641,-34.45763016,19.62617493,8.216504
15.47947025,-34.46210098,19.55542946,7.791701
14.48014164,-34.46702957,19.48498344,7.416285
13.48157597,-34.4734726,19.41600227,7.04644
12.4821701,-34.47907639,19.34833145,6.710188
11.48360157,-34.48630524,19.28337097,6.399817
10.48443413,-34.49278641,19.22107506,6.10488
9.48563766,-34.50007629,19.16236496,5.854036
8.4867506,-34.50645828,19.10734367,5.606327
7.48854256,-34.51360703,19.05752945,5.412953
6.48875904,-34.51980209,19.01257896,5.220723
5.49088621,-34.52573395,18.97364807,5.07736
4.49118376,-34.53056717,18.94089699,4.941727
3.49273181,-34.53495026,18.91428947,4.846196
2.49417043,-34.53748703,18.89464951,4.765145
1.49557126,-34.5388298,18.8821907,4.71631
0.49698111,-34.54002762,18.87753105,4.68929
-0.50208914,-34.53929901,18.88003349,4.688134
-1.50019097,-34.53770828,18.89007187,4.713494
-2.49966145,-34.53425217,18.90697861,4.759648
-3.49799371,-34.53048325,18.9308033,4.838648
-4.49694347,-34.52603531,18.96125031,4.933872
-5.49467087,-34.5200119,18.99825859,5.067455
-6.49377394,-34.5137558,19.0411644,5.210616
-7.49233866,-34.50796127,19.0891304,5.402885
-8.4902544,-34.50100708,19.14196587,5.596504
-9.48930836,-34.49371338,19.19869041,5.843854
-10.48768234,-34.48754883,19.25876617,6.096044
-11.48614693,-34.48020172,19.32140923,6.390757
-12.48488426,-34.47437286,19.38656235,6.703037
-13.48352814,-34.46837616,19.45324898,7.039501
-14.48220158,-34.46348953,19.52105713,7.411389
-15.48175907,-34.45930862,19.58930969,7.788226
-16.47978592,-34.45516968,19.6576786,8.213375
-17.4793396,-34.45259857,19.72621155,8.645835
-18.47820473,-34.4501915,19.7939949,9.10019
-19.47753334,-34.448452,19.86099434,9.588276
-20.47673416,-34.44740295,19.92721558,10.077481
-21.47580147,-34.4472847,19.99237061,10.601601
-22.47472382,-34.44693756,20.05653572,11.143814
-23.47410011,-34.44770813,20.1198101,11.687999
-24.47329712,-34.44828033,20.18164825,12.265836
-25.47296143,-34.45001984,20.24224281,12.860637
-26.47244072,-34.45154953,20.30127525,13.455314
-27.47191811,-34.4535408,20.35886955,14.073344
-28.47188377,-34.45628738,20.41477776,14.716834
-29.47161293,-34.45888519,20.46884727,15.360181
-30.47185135,-34.46220398,20.5209465,16.010444
-31.472435,-34.46553421,20.57073402,16.691283
