//X,Y,Z,C2M_signed_distances
19.2966671,16.94887161,13.76222992,-0.348009
18.47523689,17.06519127,13.10905743,-0.457673
17.60353279,17.18982124,12.39690876,-0.537229
16.74002647,17.31809044,11.62030506,-0.570712
15.86528969,17.42749023,10.82218456,-0.581713
14.91926193,17.52299881,10.01936531,-0.607181
13.91584396,17.54961586,9.19830418,-0.630001
12.81736851,17.41599655,8.29045582,-0.678403
11.66009617,17.28847313,7.47987938,-0.71888
10.52053642,17.15103149,6.77785206,-0.74068
9.41167736,17.04183197,6.20853233,-0.77685
8.23413277,16.94968033,5.69269562,-0.794007
7.17798567,16.85684776,5.25834465,-0.78488
6.11875153,16.7723999,4.91600323,-0.788035
5.02475166,16.7559948,4.66556549,-0.802333
3.97082734,16.76955605,4.46295166,-0.781023
2.96885729,16.79640198,4.34930801,-0.781263
1.93859136,16.78999519,4.24142075,-0.774994
41.43819809,15.498209,20.81088829,14.265642
40.41865921,15.49520588,20.6955471,13.305881
39.41187668,15.49161243,20.54951668,12.366112
38.41409683,15.4878931,20.38356018,11.437078
37.42141342,15.48502922,20.20327568,10.514394
36.43181992,15.48297215,20.01080704,9.597383
35.44445801,15.48142052,19.80630875,8.686739
34.45978546,15.48129368,19.5899868,7.788436
33.47682953,15.48248196,19.36092949,6.919611
32.49603271,15.48552608,19.1178894,6.073942
31.5181942,15.48967171,18.85953522,5.257387
30.54309845,15.49651814,18.58391571,4.487773
29.57291031,15.50592709,18.28956604,3.798403
28.6089077,15.51689148,17.97663307,3.23906
27.64862061,15.53132725,17.64131165,2.71317
26.69630241,15.55284023,17.28313255,2.208222
25.75229645,15.57586002,16.89886856,1.725227
24.81529427,15.60591888,16.48336983,1.291823
23.89684868,15.64682484,16.0461235,0.888266
22.9842453,15.69859886,15.58419037,0.507101
22.07619858,15.76332188,15.08206749,0.176124
21.19397736,15.8134861,14.52235889,-0.104055
20.31870842,15.87647915,13.87300301,-0.32213
19.48502731,15.97735405,13.17708969,-0.451516
18.64557266,16.10424232,12.45063114,-0.537249
17.80320168,16.21652031,11.61960411,-0.576135
16.93493652,16.3364296,10.76107502,-0.580242
16.00297737,16.43343353,9.88214397,-0.594149
15.00409698,16.39753342,9.00904083,-0.648255
13.82320881,16.28853226,8.0180397,-0.693794
12.69604397,16.20432472,7.18591404,-0.70805
11.49777412,16.05627823,6.44602776,-0.764539
10.36055851,15.92868805,5.80364799,-0.774854
9.24159813,15.78694725,5.22830582,-0.777798
8.14159775,15.6959486,4.78829384,-0.788197
7.05722284,15.69431114,4.46293831,-0.794737
6.02136326,15.68502331,4.18665695,-0.783475
4.95171213,15.66825771,3.95503235,-0.78936
3.93948007,15.68826675,3.79194641,-0.789888
2.90639067,15.69331074,3.67406845,-0.791184
1.8793484,15.72156715,3.60849953,-0.795235
41.43444443,14.49854374,20.80745888,13.934539
40.41489029,14.49546432,20.68493462,12.964441
39.4084816,14.49146175,20.53032112,12.005391
38.41243744,14.48830891,20.3555851,11.059846
37.42103195,14.4855814,20.16639519,10.131019
36.43292999,14.48324394,19.96429443,9.215892
35.4475975,14.48244953,19.74983025,8.308957
34.46437454,14.48239899,19.52247238,7.412189
33.48405075,14.48370838,19.2817688,6.531203
32.5057869,14.48689747,19.02623558,5.67334
31.5306015,14.49206829,18.75393486,4.868788
30.55942535,14.49877357,18.46267319,4.132956
29.593853,14.50805092,18.15174484,3.500108
28.63317871,14.52069569,17.81849861,2.948414
27.68034935,14.5370512,17.46185875,2.418645
26.73682976,14.5558567,17.08008003,1.930256
25.7977581,14.58176994,16.66511154,1.467004
24.87957954,14.61863899,16.22520828,1.036961
23.96651649,14.66105461,15.7538681,0.638847
23.07228279,14.70106697,15.25225735,0.286228
22.18829346,14.75391102,14.72005749,-0.036874
21.29005241,14.82907009,14.07003212,-0.294723
20.47072983,14.91214085,13.33489704,-0.422993
19.66454315,15.01638412,12.56759644,-0.510671
18.85165215,15.10170937,11.72119904,-0.569288
17.98673439,15.22570705,10.85631466,-0.600194
17.03577805,15.32161522,9.89597511,-0.622946
16.06698799,15.3023119,8.93004608,-0.629793
14.89302444,15.19416142,7.90320778,-0.686207
13.69436646,15.05755043,6.97254848,-0.716654
12.51221752,14.87768269,6.19405842,-0.785112
11.31591892,14.77225399,5.50919247,-0.809532
10.22971344,14.68280602,4.95857239,-0.796731
9.06440449,14.65311909,4.47010612,-0.788602
8.06313038,14.62415028,4.10294151,-0.76886
6.99465799,14.59430408,3.80853271,-0.801325
5.92824888,14.60272312,3.56251335,-0.791971
4.91036749,14.62623215,3.38055038,-0.793958
3.87318373,14.6467905,3.23562813,-0.801833
2.86290836,14.67015171,3.13617325,-0.813138
1.83934462,14.67295265,3.0703125,-0.820969
41.43151474,13.49855042,20.80426216,13.605946
40.40992737,13.49528694,20.67389679,12.633369
39.40635681,13.49183083,20.51102638,11.676768
38.4106102,13.48878288,20.32790947,10.72832
37.42115402,13.48584557,20.12977409,9.787877
36.43456268,13.48414993,19.91843796,8.854215
35.45114517,13.48319626,19.69426155,7.934577
34.46962738,13.4834919,19.45619202,7.040412
33.49189758,13.48532009,19.20400238,6.168349
32.51643753,13.48869896,18.93616486,5.324224
31.5437851,13.49320984,18.64933395,4.526197
30.57727432,13.50060463,18.34296417,3.809163
29.61558914,13.51039028,18.01456261,3.218768
28.66134453,13.52320766,17.66250801,2.682002
27.71553421,13.54006004,17.28530884,2.166479
26.77497673,13.56055355,16.87480354,1.673945
25.85506821,13.58951187,16.43758774,1.218819
24.94208908,13.62390041,15.96961784,0.804325
24.04478264,13.66670895,15.46682358,0.425155
23.16249657,13.72179031,14.93541527,0.07768
22.27994728,13.74784756,14.29372501,-0.209034
21.45314217,13.80713367,13.57025337,-0.387134
20.63972664,13.92789364,12.80125332,-0.503136
19.83144951,14.03193378,11.95229816,-0.570527
18.99403,14.14964676,11.01889038,-0.584666
18.11751556,14.18245029,10.01293564,-0.60643
17.1277523,14.16540909,8.97531414,-0.627546
15.94325924,14.08236027,7.92250538,-0.700042
14.71122551,13.94081974,6.92070103,-0.739658
13.52042294,13.80287743,6.08898926,-0.785851
12.31361103,13.70096874,5.36598206,-0.808818
11.18607616,13.61667442,4.74004555,-0.784442
10.08504677,13.54082966,4.23565483,-0.781811
9.02249622,13.53436947,3.85827637,-0.802339
7.95495081,13.57316303,3.54613876,-0.79186
6.93145895,13.56779766,3.28804016,-0.806031
5.87428427,13.59078407,3.07042122,-0.814072
4.85110855,13.60269547,2.88777161,-0.803673
3.82940626,13.60991383,2.74990845,-0.808493
2.82679057,13.60874557,2.65937614,-0.828643
1.77435017,13.62107372,2.59195137,-0.83519
0.78196269,13.6441431,2.56126404,-0.836268
41.42754745,12.49836731,20.80060768,13.299964
40.40633774,12.49546528,20.66278648,12.312404
39.40371704,12.49219894,20.49191666,11.348516
38.40967178,12.48900414,20.30067253,10.400637
37.42111588,12.48663139,20.09376717,9.461498
36.43702316,12.4847517,19.87369728,8.531094
35.45458221,12.48407269,19.6397934,7.609765
34.47615051,12.48473263,19.39184189,6.704181
33.49979782,12.48682594,19.1284256,5.819909
32.52745819,12.48959351,18.84792519,4.979799
31.55835724,12.49562263,18.54762459,4.210122
30.59552765,12.50226688,18.22537613,3.541405
29.63977242,12.51228619,17.88041687,2.976064
28.69048882,12.52538681,17.50931358,2.432532
27.75060463,12.54087925,17.10799026,1.918645
26.82413673,12.56443214,16.67726707,1.446048
25.90847588,12.59403801,16.21423721,1.003693
25.01087379,12.62798691,15.7201376,0.593174
24.12134933,12.66742897,15.18431282,0.218787
23.25530243,12.69065094,14.58279228,-0.094694
22.39717102,12.76498508,13.86743355,-0.320865
21.61035538,12.84845448,13.11042595,-0.466495
20.80161476,12.9238596,12.23325253,-0.549398
20.01825905,13.00956154,11.29580402,-0.57088
19.14083672,13.07775402,10.26843929,-0.604581
18.14380836,13.12188816,9.15233803,-0.605791
17.05996513,13.034338,8.09554291,-0.664983
15.76836205,12.86589241,6.98131275,-0.725434
14.52495193,12.70847988,6.05218601,-0.769371
13.33115578,12.59733391,5.30653572,-0.807942
12.17715645,12.53718472,4.65827179,-0.808611
11.06246281,12.50824547,4.12613869,-0.79054
9.99666882,12.52434444,3.71166039,-0.792744
8.95568848,12.52798557,3.3660965,-0.793349
7.90882111,12.51568794,3.06884003,-0.811896
6.85458708,12.53030872,2.81469154,-0.803852
5.84637451,12.53900528,2.62268639,-0.820208
4.80277634,12.57051373,2.46960258,-0.828841
3.79096603,12.5898428,2.34375,-0.823721
2.76543713,12.59064579,2.24071503,-0.822044
1.75652945,12.59617805,2.17450905,-0.823655
0.74215895,12.61439323,2.15062141,-0.82964
41.42374039,11.49804974,20.79650497,13.02793
40.40350342,11.49577141,20.65193748,12.037849
39.40090942,11.49261951,20.47324944,11.063693
38.40877151,11.48952007,20.27388573,10.100751
37.42195129,11.48711681,20.05896568,9.146669
36.43903732,11.48565102,19.83010483,8.208834
35.45922089,11.48502922,19.58725166,7.291421
34.4823494,11.48596954,19.32969093,6.391845
33.50860596,11.4877367,19.05560875,5.518111
32.53873062,11.49157047,18.76281166,4.687345
31.57386589,11.49597931,18.44931984,3.929396
30.61479378,11.50446224,18.11276436,3.295271
29.6633091,11.51402283,17.75039291,2.739173
28.72128868,11.52531338,17.35978508,2.211068
27.78789711,11.54337406,16.93566513,1.709659
26.87323952,11.56431866,16.48176193,1.239634
25.96782875,11.59046268,15.99266243,0.800027
25.08202744,11.62326431,15.47275162,0.408062
24.20516205,11.66369629,14.90844154,0.050118
23.33190536,11.71256828,14.2307539,-0.239106
22.53540039,11.7525816,13.46702194,-0.422676
21.742239,11.8134861,12.60288525,-0.527366
20.97990608,11.89228725,11.6727047,-0.566818
20.13723564,11.99128437,10.61672878,-0.589074
19.22877693,12.00961399,9.53666401,-0.615952
18.07326126,11.96090794,8.38020039,-0.701215
16.83029747,11.81374073,7.19454002,-0.73176
15.56161594,11.67545891,6.19030666,-0.771259
14.33204079,11.5768013,5.35991192,-0.803424
13.17829227,11.48480797,4.6551609,-0.802874
12.06035614,11.42695999,4.07277298,-0.789394
11.00807762,11.44037819,3.62861824,-0.793386
9.93040752,11.47178936,3.25723648,-0.811818
8.89695263,11.49116898,2.94462967,-0.816645
7.8402071,11.51134777,2.67070007,-0.825396
6.8170619,11.53369713,2.43557358,-0.819686
5.79565382,11.53795719,2.24294662,-0.817019
4.78251028,11.52820015,2.09056091,-0.831574
3.75105596,11.53703308,1.97125816,-0.833116
2.74124193,11.564785,1.88749504,-0.82662
1.72887981,11.5971756,1.83203125,-0.822719
41.41952515,10.49869156,20.79250336,12.7562
40.40074158,10.49573708,20.64114761,11.766462
39.39856339,10.4929533,20.45516205,10.792467
38.40811539,10.49015999,20.24819374,9.831179
37.42270279,10.48795891,20.02538681,8.878271
36.44165421,10.48639202,19.78833961,7.935621
35.46374512,10.48633289,19.53704453,7.006103
34.48901749,10.4868679,19.27021027,6.09585
33.51774216,10.48887062,18.98607635,5.220149
32.55006409,10.49211788,18.68164444,4.407599
31.58949471,10.49763203,18.35560226,3.68664
30.63434219,10.50409126,18.00491142,3.091104
29.68702126,10.51289845,17.62512016,2.534582
28.75196457,10.52495861,17.21467209,2.005017
27.82930374,10.54246902,16.77219391,1.508892
26.91923523,10.56489658,16.29202461,1.051928
26.03196716,10.59339428,15.78271008,0.634791
25.15301514,10.62840557,15.23993015,0.244355
24.27915955,10.64971542,14.61873817,-0.105041
23.44186783,10.66878605,13.85110569,-0.333982
22.67109299,10.7361002,13.04310989,-0.472418
21.90241241,10.80095387,12.07450008,-0.524924
21.13225746,10.87729263,11.11559391,-0.576088
20.21302032,10.9081974,9.99567223,-0.624703
19.19608879,10.86814499,8.81496811,-0.661614
17.93919945,10.73191929,7.55689335,-0.734432
16.61078072,10.62076664,6.40178585,-0.755762
15.37866497,10.505867,5.51597881,-0.803916
14.19117641,10.43435955,4.77285957,-0.815281
13.04014683,10.4387598,4.12371445,-0.7859
11.99678993,10.43640614,3.62541389,-0.778277
10.93657875,10.43943214,3.22061157,-0.802208
9.88429165,10.44397068,2.87101555,-0.813822
8.83777809,10.45671368,2.57083702,-0.835276
7.80114937,10.47020531,2.31054688,-0.826816
6.78457403,10.4833622,2.09628105,-0.833593
5.76526403,10.50884628,1.92590523,-0.833125
4.73935604,10.52999973,1.77842331,-0.823618
3.7311542,10.53739166,1.65688705,-0.818986
2.72127485,10.5385952,1.56783295,-0.816648
1.71849918,10.54888344,1.52291107,-0.818876
41.41629791,9.4986124,20.78897285,12.525968
40.39710236,9.49619389,20.6305275,11.521359
39.39731216,9.49343491,20.43793488,10.535644
38.40704346,9.49082184,20.22372818,9.564954
37.42394257,9.48861599,19.99354744,8.611077
36.44432068,9.48769665,19.74893188,7.671295
35.46828079,9.48714161,19.48949051,6.74619
34.49562073,9.48801041,19.21399689,5.84325
33.5265274,9.4896059,18.92006683,4.975682
32.56253433,9.49286175,18.60541916,4.1695
31.60378647,9.49745655,18.26687813,3.470753
30.65333748,9.50320721,17.90139198,2.887335
29.71256065,9.51172447,17.50651169,2.340689
28.78184509,9.5251379,17.07749748,1.824804
27.86861229,9.53971291,16.61495781,1.341002
26.96887779,9.56206799,16.11569977,0.889608
26.08925056,9.58726215,15.58182335,0.473446
25.2244091,9.60051346,15.00048065,0.102145
24.36483955,9.62750912,14.31952858,-0.206977
23.5496006,9.70108318,13.51178741,-0.39922
22.80632019,9.72512054,12.6379776,-0.51169
22.02076721,9.81940174,11.64256573,-0.558715
21.22469521,9.82168579,10.56019974,-0.590743
20.25214195,9.78869343,9.34271049,-0.641361
19.07607079,9.71634197,8.0801506,-0.703858
17.72960663,9.58452702,6.80160141,-0.734778
16.45158005,9.49206734,5.79060173,-0.768951
15.22192383,9.41695213,4.96343708,-0.799068
14.06323624,9.38154221,4.26342964,-0.792729
12.98591995,9.36223984,3.70444489,-0.794208
11.9285593,9.40832424,3.26706886,-0.810752
10.86384201,9.42201519,2.88124275,-0.823122
9.82960415,9.4354353,2.5436058,-0.836674
8.7932024,9.44799042,2.25627518,-0.829659
7.76562548,9.46921253,2.00967216,-0.835177
6.75505829,9.48218822,1.8055954,-0.821107
5.7328763,9.47134876,1.62479782,-0.819635
4.7296586,9.47117996,1.48603821,-0.8076
3.70454097,9.50052071,1.38876915,-0.803193
2.694206,9.52246666,1.3041687,-0.792117
1.70103574,9.5258503,1.24992561,-0.790064
0.67805421,9.53432846,1.21796799,-0.786399
41.41268158,8.4988451,20.78537941,12.312801
40.39434814,8.49657917,20.62071419,11.308648
39.39562988,8.49407387,20.42173004,10.323218
38.4067421,8.49151707,20.20094109,9.349361
37.42481232,8.48972511,19.96370888,8.386845
36.44721985,8.48837662,19.71211243,7.436239
35.47264481,8.48854446,19.44520378,6.501546
34.50183105,8.48873806,19.16128922,5.59401
33.53544235,8.49025249,18.85847282,4.736906
32.57376099,8.49302578,18.53381538,3.953605
31.6186676,8.49664593,18.18358421,3.296845
30.67219543,8.5027895,17.80495453,2.724897
29.73652458,8.5106926,17.39516258,2.178666
28.8131218,8.5223999,16.95176125,1.661111
27.90364456,8.53731537,16.46852112,1.179284
27.01760101,8.5581522,15.95379162,0.741285
26.14251137,8.57893181,15.39717865,0.334747
25.28186035,8.5989275,14.76840591,-0.017425
24.45839882,8.60673618,14.02179718,-0.280795
23.67900276,8.63642502,13.20763397,-0.463504
22.891716,8.69528961,12.19725895,-0.530911
22.17829323,8.67802143,11.21387005,-0.577737
21.24246407,8.73836422,9.97564507,-0.614145
20.25404549,8.72365761,8.76354504,-0.640447
18.86142921,8.57117462,7.36921597,-0.743933
17.5539341,8.44794178,6.2035675,-0.763739
16.28352356,8.36738014,5.25960064,-0.795631
15.11135387,8.33399391,4.50747299,-0.805383
13.96298504,8.34307861,3.85305977,-0.798181
12.93596077,8.3643961,3.36956787,-0.79408
11.86127853,8.35888481,2.94435501,-0.825423
10.81439304,8.38760853,2.56804466,-0.835738
9.78811932,8.40638733,2.25174141,-0.827259
8.76080894,8.42551041,1.98191643,-0.836028
7.74024534,8.43250465,1.74539948,-0.822308
6.72216606,8.44448757,1.54680443,-0.817335
5.70791674,8.46675587,1.38463974,-0.796663
4.69744539,8.47930241,1.25210571,-0.788422
3.69520569,8.47067833,1.15291023,-0.775278
2.6788137,8.49392891,1.09082413,-0.770182
1.67098105,8.52076721,1.04719925,-0.764941
0.67478049,8.55404472,1.03185272,-0.767455
41.40914917,7.49899101,20.78195,12.108191
40.39255142,7.49734163,20.6121254,11.099639
39.39324188,7.49481583,20.40686989,10.110787
38.40657043,7.49206209,20.17969131,9.139034
37.42603683,7.49065351,19.93648529,8.178524
36.44953537,7.48972034,19.67810631,7.230498
35.47701263,7.48908138,19.40424347,6.300563
34.50796509,7.4897666,19.11290359,5.398399
33.54379654,7.49124289,18.80199432,4.54342
32.58460999,7.49269104,18.46775055,3.770488
31.63248253,7.4964757,18.10660934,3.135911
30.6908741,7.50092554,17.71665573,2.563228
29.75785255,7.50853634,17.29188156,2.022377
28.84357452,7.51556873,16.83351326,1.519134
27.93953514,7.53023434,16.33397293,1.047782
27.06307602,7.54566002,15.80453968,0.614963
26.19160271,7.56033087,15.22109222,0.214623
25.34256935,7.5684824,14.54589653,-0.117031
24.53583527,7.59290504,13.73839951,-0.334593
23.79859352,7.5915575,12.86588287,-0.467987
23.01436234,7.65367365,11.86443233,-0.554843
22.22501755,7.68574905,10.74087715,-0.588644
21.30295372,7.64799643,9.53642654,-0.652092
20.06996536,7.56287098,8.12774181,-0.703491
18.69497871,7.44274282,6.78556633,-0.745032
17.37257767,7.3572607,5.69322872,-0.778783
16.16766548,7.30121326,4.82993317,-0.788087
14.99987411,7.283988,4.11206627,-0.789598
13.92796421,7.29621077,3.54624176,-0.796402
12.85231113,7.33256531,3.07296753,-0.819277
11.82200718,7.3684063,2.67754173,-0.829748
10.77031612,7.39438438,2.31687164,-0.831119
9.75741673,7.40945816,2.01233292,-0.836414
8.73003197,7.41453457,1.74941063,-0.823955
7.71002245,7.42309618,1.51845932,-0.810921
6.6945076,7.42026234,1.32209396,-0.786095
5.69543219,7.42821646,1.18020821,-0.782631
4.66749668,7.44654608,1.07205963,-0.771495
3.67336845,7.47793722,0.99529457,-0.773133
2.6615026,7.49258471,0.95245552,-0.78036
1.65828967,7.51839352,0.93561554,-0.789046
0.64564896,7.52796555,0.92859077,-0.796645
41.40686035,6.49991703,20.77957726,11.952603
40.38942337,6.49784994,20.60451126,10.937707
39.39141846,6.494874,20.39321327,9.941677
38.4066124,6.49342775,20.16070938,8.961528
37.42685699,6.49141264,19.91164589,7.991671
36.45205307,6.49071407,19.64743805,7.036257
35.48070526,6.49054909,19.36714172,6.102398
34.51405334,6.49090338,19.06943512,5.205181
33.55093384,6.49081182,18.75056076,4.362392
32.59454346,6.49296188,18.40771484,3.614609
31.64651108,6.49545622,18.0382061,3.005467
30.70580864,6.49941444,17.63537025,2.438862
29.78131866,6.50412464,17.19979858,1.903162
28.86633492,6.51271486,16.72250938,1.398113
27.97904587,6.5225234,16.21277237,0.933428
27.10153008,6.53169584,15.65947533,0.505248
26.24489975,6.54163694,15.05582142,0.121803
25.39906311,6.5499897,14.33108521,-0.188799
24.62166023,6.56884193,13.52463341,-0.397089
23.85521889,6.60256195,12.57502842,-0.513514
23.11637115,6.56992388,11.53652096,-0.573268
22.28072929,6.58073711,10.354599,-0.608539
21.23111725,6.53347158,8.99916649,-0.654993
19.92291832,6.40280342,7.58193302,-0.727092
18.5190239,6.32711315,6.299366,-0.779263
17.24922562,6.28096724,5.29687023,-0.796212
16.04549408,6.26316166,4.47391701,-0.795173
14.93443584,6.2714138,3.8149929,-0.800006
13.86545849,6.28214598,3.27580261,-0.80182
12.81923485,6.32118082,2.83635521,-0.819412
11.77823544,6.348598,2.44725418,-0.836207
10.74824429,6.36535931,2.1097641,-0.845365
9.71346951,6.38553762,1.80658913,-0.827592
8.70638847,6.38804007,1.54702377,-0.816219
7.68145895,6.39569283,1.33023834,-0.793483
6.67285013,6.41719151,1.15858078,-0.777929
5.66428661,6.43121624,1.03375816,-0.770824
4.65881634,6.44990158,0.95575333,-0.782905
3.64220452,6.46679592,0.91370964,-0.795273
2.64354038,6.48729706,0.89543343,-0.819226
1.63446593,6.50283051,0.8937149,-0.845956
41.40528488,5.49988842,20.77808762,11.800806
40.38536835,5.49777603,20.59731293,10.78306
39.39137268,5.49591398,20.38132858,9.790973
38.40581512,5.49390268,20.14393616,8.810081
37.42768478,5.49273062,19.88960075,7.84251
36.45436478,5.49189711,19.62024117,6.889842
35.48477936,5.49192953,19.33500862,5.958054
34.5183754,5.49139929,19.03082466,5.059047
33.5580101,5.4922657,18.70532799,4.219572
32.60421753,5.49289751,18.35572052,3.485433
31.65675354,5.49392509,17.97607994,2.884059
30.72222328,5.49636793,17.56477737,2.318892
29.79934311,5.50031948,17.11686707,1.786032
28.89333725,5.50709343,16.62963676,1.29056
28.00787735,5.51656294,16.10739136,0.83395
27.13539505,5.52610254,15.5344162,0.41496
26.29248238,5.52949858,14.91640663,0.043237
25.4441967,5.5342927,14.15614223,-0.257425
24.68468094,5.50700426,13.29392147,-0.434007
23.92969513,5.50011396,12.32858849,-0.545082
23.17371178,5.5161624,11.21910095,-0.575913
22.30310249,5.49173307,9.99413872,-0.62616
21.13471794,5.44245672,8.55617046,-0.688262
19.77225304,5.34855795,7.12213707,-0.733068
18.36307144,5.25543308,5.87486076,-0.765742
17.15673256,5.2075038,4.96224976,-0.781158
15.96442318,5.2057538,4.19581032,-0.796247
14.86673355,5.2415185,3.57234383,-0.79903
13.82143116,5.29121637,3.07194138,-0.817555
12.77888775,5.31917048,2.63669014,-0.83038
11.74032497,5.33627224,2.24655533,-0.825149
10.73248386,5.35448933,1.92644691,-0.831802
9.68949509,5.36497641,1.63265228,-0.825625
8.67765045,5.3787365,1.38290787,-0.794901
7.66005611,5.38883829,1.1838398,-0.785061
6.65306425,5.39821386,1.04029846,-0.777463
5.63518095,5.41815042,0.94763756,-0.788884
4.6362834,5.4384613,0.90305901,-0.812564
3.62452984,5.46599865,0.89356232,-0.850854
2.62024736,5.49236965,0.90201378,-0.875234
1.60520184,5.5105896,0.90907478,-0.893969
41.40320206,4.49881506,20.77575302,11.67992
40.38362122,4.49830675,20.59118652,10.6551
39.3900528,4.49649858,20.3710289,9.656165
38.40561676,4.49476719,20.1293354,8.669959
37.4287262,4.49398518,19.87090874,7.698765
36.45648956,4.493536,19.59734917,6.744673
35.48742294,4.4928875,19.30718422,5.814542
34.52324677,4.49257851,18.99804688,4.922914
33.56445313,4.49262524,18.66762543,4.094829
32.61089325,4.49256516,18.31071281,3.381483
31.66800499,4.49406481,17.92473412,2.793024
30.73514557,4.49502993,17.50506401,2.232765
29.81537628,4.49654055,17.04683685,1.703963
28.91529465,4.50008488,16.55218124,1.211214
28.03163719,4.50144243,16.01582146,0.754034
27.16961479,4.50959063,15.44307995,0.33581
26.31221581,4.4957037,14.77398682,-0.027512
25.50737572,4.47703695,14.00425529,-0.294197
24.72630882,4.49457216,13.09186649,-0.460161
23.99855995,4.46733284,12.10935783,-0.550747
23.20405769,4.44383955,10.94634628,-0.600793
22.30290794,4.37006903,9.6526165,-0.633993
21.04958916,4.30811691,8.15323734,-0.689528
19.60502434,4.24437857,6.74881172,-0.766467
18.23731041,4.22364473,5.5832262,-0.792286
17.0515461,4.20845366,4.69168091,-0.781572
15.89174652,4.20400095,3.96998978,-0.7985
14.83400822,4.23336649,3.38719177,-0.801148
13.79283619,4.26935816,2.89978409,-0.815339
12.74085331,4.30173111,2.46595383,-0.828983
11.72082329,4.33168507,2.09202576,-0.827385
10.70271873,4.34402227,1.77379227,-0.818198
9.67127037,4.35521746,1.49551582,-0.811613
8.65057373,4.36143732,1.25839615,-0.796229
7.63731623,4.37504911,1.07844353,-0.775662
6.62687206,4.39313173,0.96038437,-0.788152
5.62062168,4.41841364,0.90351295,-0.812877
4.61288452,4.44526291,0.8968792,-0.859181
3.60627723,4.46279764,0.91490364,-0.899696
2.59825373,4.47378922,0.93894196,-0.938942
1.59795868,4.50430155,0.96581841,-0.965818
0.57999182,4.53921986,0.97860146,-0.978601
41.40019989,3.4992919,20.77285957,11.58649
40.38406372,3.49793196,20.58592033,10.564855
39.38849258,3.49735165,20.36252975,9.56393
38.40581131,3.49598193,20.11737251,8.579086
37.4296875,3.49523067,19.85579109,7.607464
36.45776749,3.49486732,19.57856369,6.651497
35.49036026,3.49420691,19.284729,5.719536
34.52697754,3.49411845,18.97182846,4.825995
33.56891632,3.49312568,18.63641739,4.000539
32.6181221,3.49271345,18.27508545,3.300636
31.67572975,3.49212575,17.88345909,2.711647
30.744524,3.49162936,17.45588684,2.151256
29.8301487,3.49228406,16.99136925,1.626453
28.93243027,3.49134469,16.48859787,1.135932
28.05046654,3.49194074,15.9408083,0.682709
27.19711113,3.47947264,15.35860538,0.271385
26.33317757,3.47107291,14.65155792,-0.08016
25.55555534,3.45127344,13.86607361,-0.31925
24.77898407,3.43266678,12.96286201,-0.494999
24.02467537,3.40259957,11.89064312,-0.56409
23.25841141,3.3379941,10.72412968,-0.595025
22.23373604,3.31472969,9.32800674,-0.647246
20.96865654,3.22136641,7.86353207,-0.703774
19.45650291,3.17610669,6.43737698,-0.788104
18.15184021,3.12138462,5.32979012,-0.782797
16.98313141,3.16030979,4.50584221,-0.794616
15.84131718,3.2113905,3.80994415,-0.811449
14.8021841,3.24885225,3.24205208,-0.806248
13.75545406,3.27744031,2.75657082,-0.812599
12.72912502,3.29933071,2.34029961,-0.819752
11.69920826,3.32494068,1.98065567,-0.833472
10.66653156,3.33936357,1.66096115,-0.822611
9.64813042,3.34042239,1.38873672,-0.800412
8.62003708,3.35025382,1.15894508,-0.779969
7.62473822,3.36825204,1.00704956,-0.784034
6.59972906,3.39473557,0.92098618,-0.802732
5.6067028,3.41450334,0.89671326,-0.853768
4.58962727,3.43302107,0.91723442,-0.902084
3.59057093,3.45500898,0.95160675,-0.951607
2.58212399,3.49215794,0.99200058,-0.992001
1.5811621,3.50470734,1.02854538,-1.028545
41.39836502,2.49950409,20.77083778,11.499618
40.38331985,2.49886417,20.58128357,10.476809
39.38835907,2.49763727,20.35588074,9.474684
38.40602112,2.49721646,20.10840988,8.489201
37.43014908,2.49682665,19.84426308,7.517817
36.45924759,2.49630117,19.56445503,6.563704
35.49240494,2.4957931,19.2679081,5.634083
34.52981186,2.49482632,18.95207787,4.744754
33.57242203,2.49370503,18.61304474,3.927097
32.6232338,2.49253058,18.24825668,3.242265
31.68161392,2.49012256,17.85162544,2.656546
30.75342369,2.49063253,17.42072105,2.100544
29.83840942,2.48823428,16.9501152,1.576471
28.94275284,2.48496485,16.43858147,1.090354
28.06908989,2.47705865,15.88863182,0.642803
27.20581055,2.45865989,15.27151394,0.238782
26.37773514,2.44083929,14.58420563,-0.09829
25.5604763,2.4285996,13.75608158,-0.349676
24.82074165,2.36467099,12.82027721,-0.482667
24.06785583,2.32782149,11.74752522,-0.551787
23.23750877,2.29437351,10.54515839,-0.61323
22.19656754,2.20324159,9.11216927,-0.655338
20.8252182,2.16070461,7.59854794,-0.734304
19.36960411,2.07492375,6.20010281,-0.763942
18.1046257,2.14475536,5.16368198,-0.759817
16.92378426,2.15312696,4.36980057,-0.796607
15.81843376,2.18103051,3.69637489,-0.806962
14.76198006,2.23692226,3.1403141,-0.824859
13.72491646,2.26071405,2.65312767,-0.817945
12.70444298,2.29170394,2.24683189,-0.820177
11.67281723,2.30914807,1.89920807,-0.833662
10.63290787,2.31844163,1.57906151,-0.8284
9.61491108,2.325243,1.30340004,-0.791901
8.60356522,2.34550762,1.09309196,-0.770634
7.59504414,2.3601191,0.95719719,-0.784751
6.59296942,2.38591266,0.90453148,-0.827799
5.57805634,2.41086173,0.9065876,-0.88005
4.57707119,2.43080902,0.94003105,-0.940031
3.57795882,2.45891213,0.9949398,-0.99494
2.56698537,2.4705348,1.05010223,-1.050102
1.5540334,2.48836637,1.08068085,-1.080681
41.39753723,1.49989688,20.76970863,11.463509
40.38254929,1.49937165,20.57823944,10.439125
39.38827515,1.49865544,20.35103607,9.435788
38.40634537,1.49845803,20.10233879,8.448388
37.43073654,1.49808359,19.83667374,7.474378
36.460289,1.49785173,19.55526733,6.517772
35.49354935,1.49720967,19.25678825,5.585927
34.53168869,1.49573493,18.93869781,4.696289
33.57533646,1.49455404,18.59794235,3.880954
32.6255455,1.49189878,18.23004913,3.201699
31.68609047,1.49031377,17.83140945,2.616395
30.75798607,1.48540747,17.39777565,2.059165
29.84347534,1.48291504,16.92416763,1.534863
28.94821358,1.47558844,16.4067955,1.050233
28.07661819,1.46482253,15.84934998,0.606804
27.21478462,1.45358753,15.2264595,0.206326
26.38473129,1.41529131,14.51671124,-0.121949
25.59335899,1.35439491,13.68893242,-0.355523
24.8287487,1.35074389,12.7572279,-0.509686
24.06264496,1.26497936,11.6216526,-0.559392
23.24617195,1.15777075,10.4136095,-0.606041
22.14251709,1.15757966,8.98418331,-0.676142
20.73434639,1.08510482,7.40632057,-0.733407
19.27677155,1.10650194,6.06737995,-0.77275
18.05000687,1.06551468,5.07764912,-0.780165
16.8552227,1.11405814,4.24650955,-0.784407
15.81333256,1.16090977,3.61759949,-0.792463
14.73337746,1.20793295,3.06363297,-0.817509
13.70676422,1.26674998,2.59520912,-0.82722
12.66781044,1.28995919,2.19057083,-0.832839
11.64579868,1.2943089,1.83697128,-0.829004
10.60804653,1.30934155,1.52289391,-0.818527
9.58773899,1.32597327,1.2457943,-0.785591
8.59113121,1.33602548,1.05233002,-0.768375
7.56768656,1.3665055,0.9336338,-0.787871
6.58101797,1.38375592,0.89852333,-0.850118
5.55440569,1.40312755,0.91872978,-0.90379
4.56626129,1.42106616,0.96112823,-0.961128
3.55957747,1.44539511,1.0314827,-1.031483
2.54459763,1.46270084,1.08039284,-1.080393
1.53520882,1.47913241,1.10715866,-1.107159
0.52866811,1.49648786,1.11938858,-1.119389
41.39738083,0.50009286,20.76940155,11.433204
40.3813591,0.49974981,20.57637978,10.407689
39.38882065,0.49976066,20.34855843,9.406092
38.40660477,0.49963441,20.09928703,8.418446
37.43135452,0.49956098,19.83306503,7.444924
36.46058273,0.49934688,19.55083275,6.488283
35.49440002,0.49827477,19.25154305,5.557572
34.53239059,0.49748674,18.93261528,4.668994
33.57609177,0.49496558,18.5906086,3.856196
32.62755585,0.49238393,18.22217178,3.181972
31.68676567,0.48790908,17.82188988,2.596331
30.75873756,0.48276803,17.38545609,2.040644
29.84695625,0.47428024,16.91119576,1.518683
28.95030212,0.46780846,16.39374161,1.03248
28.07405663,0.45089078,15.82448578,0.590753
27.22821045,0.4320561,15.21997547,0.193424
26.36967278,0.40396771,14.48356438,-0.145027
25.59796333,0.35589901,13.65323925,-0.36063
24.82957077,0.24288306,12.70647526,-0.513401
24.05968857,0.17329843,11.56003094,-0.560496
23.25901222,0.15726314,10.36632252,-0.596911
22.07937431,0.01116918,8.86267281,-0.674383
20.6930294,0.02327115,7.33204365,-0.734833
19.22313499,0.02242554,5.9993372,-0.776433
17.98151207,0.07306388,5.00403118,-0.780846
16.8552494,0.12229255,4.22162819,-0.783433
15.75631046,0.1786769,3.56492424,-0.794322
14.73095226,0.20024955,3.02970886,-0.807779
13.67567825,0.23714323,2.56945419,-0.839526
12.6369381,0.25908637,2.15327644,-0.831563
11.63275051,0.29393926,1.81340408,-0.831409
10.57719231,0.30235618,1.48946571,-0.812077
9.57723141,0.31464782,1.2223835,-0.786373
8.5621891,0.33800292,1.03151512,-0.768815
7.56250191,0.35455364,0.93082809,-0.79719
6.54688358,0.37810335,0.90307426,-0.860245
5.54349613,0.39293206,0.92164993,-0.912326
4.54866982,0.42671376,0.97974968,-0.97975
3.5397191,0.43515879,1.04724121,-1.047241
2.52520108,0.45437029,1.0942173,-1.094217
1.51718581,0.47242874,1.11973953,-1.11974
41.39767456,-0.50012714,20.76931572,11.433492
40.38117599,-0.49972823,20.57593346,10.407481
39.38961029,-0.49927011,20.34850502,9.406864
38.40642929,-0.49897382,20.09935951,8.418251
37.43161392,-0.49892187,19.8333416,7.445158
36.46077728,-0.49953392,19.55134201,6.488448
35.49430084,-0.49986464,19.25217438,5.557436
34.53238678,-0.50204003,18.93353653,4.668913
33.57593536,-0.50387192,18.59201813,3.855786
32.62591934,-0.50833642,18.22279549,3.180663
31.68673134,-0.51322013,17.82311821,2.5963
30.75777817,-0.51905644,17.38751984,2.039667
29.84366417,-0.52868378,16.91151428,1.517117
28.95001793,-0.54315406,16.39641953,1.032751
28.07219124,-0.54979211,15.83485126,0.586214
27.21333313,-0.58628398,15.21560192,0.187079
26.3744297,-0.64409524,14.4902401,-0.13838
25.58520699,-0.70811081,13.64618683,-0.35828
24.82653236,-0.75979334,12.68877125,-0.492199
24.05461121,-0.82818049,11.59323025,-0.563643
23.19525528,-0.99519455,10.33730125,-0.610945
22.07535934,-0.99672234,8.85810661,-0.659924
20.65536308,-1.00629997,7.3427906,-0.753312
19.18498421,-0.9834494,5.99092293,-0.779421
17.96017456,-0.95265859,4.99326134,-0.770466
16.82725906,-0.90742326,4.22172737,-0.78586
15.72801781,-0.87027198,3.56665421,-0.798145
14.7009182,-0.80534214,3.03515625,-0.816344
13.64891052,-0.78647012,2.55611229,-0.829303
12.634552,-0.74215496,2.15692902,-0.827983
11.60351276,-0.72713274,1.81463814,-0.834526
10.56027412,-0.70841712,1.48598862,-0.807116
9.56588173,-0.68933904,1.22658539,-0.787547
8.53549576,-0.67518812,1.03316498,-0.771324
7.54793406,-0.65181768,0.93255424,-0.798471
6.51638126,-0.63618189,0.89764786,-0.855272
5.54021168,-0.60887617,0.91838455,-0.908656
4.52330542,-0.59114915,0.9888134,-0.988813
3.51897526,-0.57273585,1.0459156,-1.045916
2.51004004,-0.55274975,1.0939579,-1.093958
1.49793792,-0.5336616,1.12114334,-1.121143
41.39741516,-1.5002811,20.76909256,11.463357
40.38274384,-1.49916935,20.57706833,10.439248
39.38973618,-1.49811828,20.35081482,9.437222
38.40681458,-1.49769604,20.10273361,8.448839
37.43139648,-1.49761021,19.83758354,7.475003
36.46057129,-1.49783301,19.5566597,6.517958
35.49370193,-1.49880064,19.25889015,5.585846
34.53099442,-1.50035822,18.94115448,4.695194
33.57434464,-1.50417781,18.60089493,3.879235
32.62402725,-1.50755167,18.23350334,3.198983
31.68354607,-1.51381147,17.8356514,2.612592
30.75389862,-1.52197063,17.40315056,2.053789
29.8374176,-1.53208947,16.92978859,1.528158
28.94081688,-1.54851186,16.4137001,1.042393
28.06809044,-1.5754987,15.86483002,0.59454
27.19337082,-1.60209978,15.23587036,0.187444
26.36149788,-1.65411437,14.50300217,-0.127532
25.58172417,-1.71465659,13.69283485,-0.354613
24.79851913,-1.82137907,12.73834419,-0.502753
24.01536751,-1.92339289,11.66615486,-0.587579
23.1475563,-1.98232007,10.33249569,-0.596773
22.10763168,-2.1056211,8.97009087,-0.647502
20.60108757,-2.08853865,7.39035702,-0.768886
19.21744537,-2.04395771,6.08952522,-0.780807
17.91691971,-1.93622363,5.03727341,-0.78572
16.77990913,-1.94506383,4.23035812,-0.771279
15.7499218,-1.87975192,3.6194725,-0.791168
14.6612072,-1.83744431,3.06211281,-0.81803
13.6401453,-1.7942853,2.59150124,-0.824696
12.61650562,-1.76337719,2.19688416,-0.835442
11.5790329,-1.73682749,1.83648491,-0.831594
10.5535059,-1.71794081,1.51877785,-0.814652
9.5349102,-1.69893825,1.24953651,-0.787903
8.52699661,-1.68077064,1.05414391,-0.770189
7.51551437,-1.66059721,0.94064331,-0.794397
6.50861597,-1.63303244,0.89710617,-0.849171
5.50972509,-1.61461818,0.9150753,-0.899922
4.50522089,-1.60558379,0.9671154,-0.967115
3.50661182,-1.57927489,1.02991486,-1.029915
2.49072099,-1.56104743,1.08139992,-1.0814
1.48160887,-1.54103363,1.1097641,-1.109764
0.47409874,-1.52144361,1.12259674,-1.122597
41.39806747,-2.49995279,20.76948357,11.499257
40.38494492,-2.498101,20.5800972,10.478312
39.38933563,-2.49719882,20.35541916,9.475608
38.40750885,-2.49652696,20.10919571,8.490638
37.43082047,-2.49595404,19.84588432,7.518373
36.45975876,-2.49632287,19.56687355,6.564054
35.49225998,-2.49777961,19.2709465,5.633724
34.52921295,-2.49949813,18.95586395,4.74375
33.57113266,-2.50244498,18.61772919,3.924983
32.62071228,-2.50829744,18.25380707,3.238406
31.67805862,-2.51422882,17.85967445,2.651132
30.74630737,-2.52410555,17.43094444,2.091689
29.82820702,-2.53824067,16.96237373,1.5652
28.92768669,-2.55459404,16.45051956,1.076651
28.04961395,-2.57881165,15.89894104,0.628702
27.18027115,-2.62451339,15.27989674,0.225499
26.3464222,-2.66537833,14.58011055,-0.103598
25.52766037,-2.75204873,13.74804688,-0.34535
24.76893425,-2.85368538,12.81040955,-0.479187
23.98410416,-2.98322821,11.75075912,-0.567927
23.108778,-3.07151055,10.51581097,-0.63708
22.06074715,-3.10183311,9.08617592,-0.655986
20.63331795,-3.15600753,7.52021885,-0.730333
19.24580002,-3.09559512,6.22613907,-0.778886
17.89565468,-3.08542132,5.14923763,-0.792697
16.78416824,-2.94121051,4.34837914,-0.790948
15.70617199,-2.90122271,3.69233513,-0.801428
14.65189457,-2.86567736,3.13484573,-0.818611
13.63113403,-2.81879711,2.6566906,-0.815421
12.59704304,-2.78361559,2.24962997,-0.827271
11.5664072,-2.75409245,1.88956261,-0.827902
10.55019283,-2.72266102,1.58209229,-0.827528
9.50046158,-2.70394731,1.29589844,-0.788277
8.51798916,-2.69141173,1.09062004,-0.765572
7.48676538,-2.66770458,0.95893097,-0.787173
6.50086546,-2.64659333,0.90494919,-0.827147
5.4753809,-2.62396169,0.90663528,-0.880278
4.4910903,-2.60445929,0.93584061,-0.935841
3.48511839,-2.58985376,0.99995804,-0.999958
2.47461939,-2.5701704,1.05163956,-1.05164
1.4644897,-2.55091715,1.08335686,-1.083357
0.45638934,-2.53271246,1.09741974,-1.09742
41.40042496,-3.49896955,20.7715168,11.586595
40.38538361,-3.49758697,20.58450508,10.566058
39.3903656,-3.49648404,20.36243057,9.565712
38.40716934,-3.49499869,20.11864662,8.580367
37.43059921,-3.49486542,19.85809326,7.608295
36.45843506,-3.49487472,19.5818615,6.651953
35.48998642,-3.4957335,19.28875542,5.718802
34.52644348,-3.49865103,18.9768734,4.824804
33.56705475,-3.50266719,18.64256859,3.997515
32.6151123,-3.50697637,18.28305817,3.295019
31.67047501,-3.5159471,17.89376831,2.703578
30.73707962,-3.52617264,17.47113991,2.139769
29.81386566,-3.54231286,17.00618172,1.609154
28.91530609,-3.56048465,16.507267,1.117517
28.02206421,-3.59032679,15.95438957,0.662199
27.16039467,-3.62861991,15.34891701,0.264755
26.31027031,-3.68718743,14.66926193,-0.081155
25.48452187,-3.77593565,13.84196377,-0.324625
24.71869087,-3.86932182,12.93611145,-0.472964
23.92792511,-4.00810862,11.86375141,-0.544868
23.0874958,-4.15619802,10.7273941,-0.622984
22.02258682,-4.2419157,9.33067036,-0.686088
20.6960907,-4.19945908,7.79022121,-0.722988
19.20791626,-4.16083622,6.3993988,-0.80146
17.95772171,-4.06096172,5.33368111,-0.793383
16.78088188,-4.01196671,4.49577332,-0.799019
15.68320751,-3.96062756,3.80011559,-0.79682
14.65522671,-3.89713192,3.24321365,-0.800122
13.62094593,-3.82367659,2.76126099,-0.813875
12.57155991,-3.79051375,2.33451843,-0.822754
11.56839848,-3.76371527,1.98376846,-0.834671
10.52522755,-3.73187828,1.66682816,-0.831731
9.49214077,-3.71351552,1.3768959,-0.792731
8.48847485,-3.69283128,1.15241432,-0.77266
7.47545433,-3.67776108,0.99804688,-0.775456
6.47263479,-3.65363312,0.91814804,-0.798454
5.46358252,-3.63292718,0.89704323,-0.854176
4.46551609,-3.60689521,0.91639328,-0.901081
3.45827389,-3.59804368,0.9554348,-0.955435
2.46023369,-3.58543992,0.99929428,-0.999294
1.44713163,-3.56326532,1.03616524,-1.036165
0.43697682,-3.54377341,1.05110931,-1.051109
41.40353394,-4.49923706,20.77449799,11.680204
40.3854866,-4.49696732,20.59036064,10.656788
39.39182663,-4.49548674,20.37147522,9.657855
38.40712357,-4.4943471,20.13111115,8.671442
37.4298439,-4.49293852,19.87404251,7.699703
36.45654297,-4.49363804,19.60120773,6.74451
35.48801041,-4.49486971,19.31249619,5.814784
34.52142715,-4.49671888,19.0041275,4.920529
33.56229401,-4.50108576,18.6747551,4.0917
32.60799789,-4.50794792,18.32090569,3.375927
31.66129684,-4.51530266,17.9379673,2.783105
30.72426605,-4.52842712,17.52163887,2.219131
29.79931641,-4.54351711,17.06624985,1.686215
28.89371109,-4.56657887,16.5747757,1.18964
27.99759674,-4.59957123,16.03087425,0.730041
27.13134193,-4.63935089,15.4446125,0.321506
26.26625633,-4.69926119,14.77894783,-0.039542
25.43317986,-4.7775507,13.98158073,-0.30134
24.65233803,-4.90558386,13.09990311,-0.467493
23.84369278,-5.04681158,12.04310608,-0.554071
23.04856491,-5.17681217,10.93864632,-0.59755
22.01930618,-5.29296684,9.58258057,-0.663946
20.76420593,-5.35721302,8.14220238,-0.712361
19.2669735,-5.25487804,6.6576767,-0.760857
18.03290558,-5.13126421,5.60107613,-0.786247
16.75528145,-5.04401493,4.66286087,-0.799974
15.69572067,-4.95834112,3.98044968,-0.795885
14.6266098,-4.89900637,3.38346481,-0.796331
13.60954666,-4.88252115,2.89995956,-0.808195
12.56079102,-4.83030462,2.46098709,-0.820988
11.55684757,-4.78637791,2.09991837,-0.828657
10.51366806,-4.75290537,1.78204346,-0.830477
9.48483467,-4.71941614,1.49387932,-0.812787
8.46463871,-4.69555902,1.25228691,-0.791594
7.45635366,-4.67926741,1.07225227,-0.769309
6.44427872,-4.66094255,0.95569992,-0.783197
5.4476223,-4.63967943,0.90378571,-0.812176
4.44111156,-4.62494183,0.898386,-0.860555
3.43956566,-4.59879875,0.91628265,-0.900774
2.43149185,-4.58229256,0.94417572,-0.944176
1.42793286,-4.57473993,0.96699333,-0.966993
41.40646744,-5.49948978,20.77733612,11.801864
40.38736725,-5.49692822,20.59766197,10.784925
39.39212799,-5.49478054,20.38224602,9.791584
38.40777206,-5.49300289,20.14624405,8.811917
37.42883301,-5.49230528,19.89352989,7.843527
36.45479965,-5.49164534,19.62538147,6.889953
35.48377991,-5.49325466,19.34049225,5.95666
34.51824188,-5.49664307,19.0382061,5.058283
33.55535889,-5.49928808,18.71473122,4.215206
32.59892654,-5.50625467,18.36665344,3.477445
31.6504612,-5.51683569,17.99132347,2.873638
30.70960236,-5.52989578,17.58237839,2.303784
29.78380585,-5.54658031,17.14015961,1.767285
28.86535835,-5.5716157,16.65212059,1.266942
27.97541618,-5.60206604,16.12896156,0.810833
27.09071159,-5.64177608,15.55529022,0.387445
26.22468948,-5.71282625,14.91521645,0.020272
25.37206268,-5.80160189,14.15765762,-0.267588
24.56354141,-5.92347431,13.28001595,-0.44375
23.7781086,-6.06449413,12.29221725,-0.53862
22.96186638,-6.23190403,11.18886948,-0.592307
22.0098362,-6.37445927,9.91083717,-0.629492
20.8296051,-6.37455273,8.49234676,-0.68512
19.40142441,-6.3051877,7.0415926,-0.732806
18.05700111,-6.22814274,5.88094807,-0.767485
16.81119919,-6.1102376,4.93629074,-0.788237
15.69144917,-6.02632141,4.20618629,-0.796552
14.60207558,-5.97337103,3.57226944,-0.791111
13.60767269,-5.88410711,3.07000732,-0.806495
12.55050755,-5.83197117,2.61803627,-0.81422
11.54423332,-5.7977829,2.24989319,-0.820531
10.50062275,-5.77266073,1.92272758,-0.831055
9.49374962,-5.74137926,1.64460373,-0.832517
8.43935394,-5.70995855,1.38704681,-0.803934
7.44207144,-5.69286633,1.1804142,-0.78089
6.4243679,-5.6668849,1.03547668,-0.773129
5.42210484,-5.64836264,0.9425354,-0.782709
4.41963339,-5.6228919,0.90312576,-0.81197
3.418571,-5.60836315,0.89812279,-0.854996
2.4102478,-5.59070301,0.90421867,-0.877335
1.40886259,-5.56389475,0.9168663,-0.901577
41.40950775,-6.49990797,20.77998734,11.955241
40.3895874,-6.49708748,20.6052742,10.937797
39.39369583,-6.49424791,20.39497375,9.943903
38.40777206,-6.49214554,20.16378403,8.962537
37.4280014,-6.49072599,19.91617775,7.99265
36.45252228,-6.49115181,19.65331268,7.036496
35.48033142,-6.49165392,19.37419319,6.101501
34.51229858,-6.4936657,19.07745743,5.202635
33.54876709,-6.49983644,18.76135635,4.359097
32.58895874,-6.50590611,18.42061234,3.606479
31.63751221,-6.51556969,18.05272865,2.993899
30.69424057,-6.52972889,17.65411186,2.424747
29.7626133,-6.54727888,17.22228622,1.88343
28.84123611,-6.57107973,16.74929428,1.373512
27.94065475,-6.60577726,16.23807907,0.904248
27.05568314,-6.65032053,15.69444847,0.472463
26.16235161,-6.71051502,15.05792999,0.086199
25.31759071,-6.80792475,14.35682011,-0.214015
24.4756031,-6.93355608,13.49108982,-0.415624
23.69907761,-7.0902729,12.56704903,-0.517029
22.87321854,-7.25153112,11.46435452,-0.558654
21.99542236,-7.39291859,10.2955761,-0.599581
20.85203934,-7.48598957,8.93703556,-0.66666
19.53119278,-7.41633511,7.53834438,-0.726196
18.09996223,-7.29491901,6.21274757,-0.748655
16.90130615,-7.17655897,5.29471684,-0.788587
15.66189003,-7.07321167,4.44782257,-0.796243
14.65163422,-7.00324583,3.81873894,-0.779463
13.57673836,-6.92718744,3.28900146,-0.80534
12.54270077,-6.87472343,2.8307724,-0.809574
11.51586723,-6.82412767,2.44029236,-0.829019
10.49393845,-6.78908205,2.09742737,-0.829749
9.48678398,-6.75714731,1.8154068,-0.829418
8.43725586,-6.73264265,1.55345917,-0.824241
7.43314219,-6.69401741,1.33316612,-0.795485
6.40522003,-6.67260551,1.16205406,-0.783049
5.39950514,-6.65279675,1.03306198,-0.770032
4.39706326,-6.63582993,0.95776558,-0.78485
3.39095831,-6.61661863,0.9159317,-0.796128
2.39493299,-6.59155273,0.90173531,-0.82462
1.38401401,-6.58163834,0.89883614,-0.850481
0.38022256,-6.55503273,0.89818573,-0.855111
41.4115715,-7.49994183,20.7822361,12.110755
40.39324951,-7.49702263,20.61336517,11.100331
39.39516068,-7.49390793,20.40906906,10.112564
38.40819168,-7.49116039,20.18357468,9.140507
37.42712021,-7.49009085,19.94183159,8.179425
36.44980621,-7.48904467,19.68476868,7.230328
35.47664261,-7.49069405,19.41236687,6.299777
34.50651932,-7.49332762,19.12283707,5.396118
33.53987122,-7.49714327,18.81312943,4.537988
32.57930374,-7.50506973,18.48158646,3.762517
31.62347412,-7.51535463,18.12299728,3.123129
30.67771912,-7.52887583,17.73600388,2.54767
29.73983955,-7.54773331,17.31626701,2.003684
28.81490326,-7.57322693,16.85998726,1.49483
27.90413094,-7.60416698,16.36538696,1.019069
27.00977707,-7.65260458,15.83568954,0.579285
26.11393166,-7.71309471,15.24082565,0.175504
25.24576187,-7.79621601,14.56238937,-0.146289
24.39634323,-7.92936325,13.73758507,-0.361596
23.60645294,-8.06972885,12.85734558,-0.496751
22.76921463,-8.26318169,11.81236649,-0.556366
21.93318367,-8.42124176,10.7216444,-0.5891
20.84975624,-8.54265118,9.37814999,-0.633122
19.68961906,-8.53340626,8.12591362,-0.69659
18.18181419,-8.38436031,6.68807602,-0.74667
16.96426392,-8.28321934,5.68446827,-0.762364
15.72101021,-8.16945267,4.79360199,-0.774819
14.66513157,-8.0394907,4.13969803,-0.785939
13.54020023,-7.96477175,3.54926872,-0.80574
12.54108906,-7.91790915,3.07908249,-0.809972
11.50275612,-7.85075569,2.67052269,-0.826706
10.477005,-7.80721188,2.31225014,-0.824089
9.46465969,-7.77861881,2.01530838,-0.839293
8.44704819,-7.74308157,1.7541275,-0.827502
7.42209196,-7.71518517,1.5323391,-0.824195
6.38913488,-7.68994236,1.33572388,-0.798396
5.38725805,-7.66314983,1.18641472,-0.786989
4.36962175,-7.6390481,1.07164955,-0.769618
3.37434196,-7.61993504,0.9971199,-0.774102
2.36853838,-7.60371113,0.95990372,-0.78625
1.35921776,-7.58014631,0.93435669,-0.787431
41.41482544,-8.49984837,20.78502464,12.315081
40.39606857,-8.49661827,20.6219883,11.310406
39.39728928,-8.49371338,20.42417526,10.324864
38.40877151,-8.4907732,20.20528793,9.351283
37.42591858,-8.48853207,19.96995354,8.387651
36.44763947,-8.4885807,19.71994972,7.436393
35.47196198,-8.48898029,19.454319,6.500201
34.50027466,-8.49135971,19.17238617,5.591476
33.53157425,-8.49672985,18.87150383,4.731853
32.56764984,-8.50351524,18.54854774,3.94531
31.60994339,-8.51351452,18.2014389,3.284111
30.65903854,-8.52712536,17.82658768,2.708243
29.71684647,-8.5470295,17.42025185,2.157587
28.78646851,-8.57073689,16.98107147,1.634832
27.86890984,-8.60149002,16.50889206,1.14605
26.9546833,-8.65239811,15.98433113,0.698108
26.0765686,-8.71563911,15.43399429,0.300214
25.16996002,-8.80397415,14.77543068,-0.054145
24.32554626,-8.91119671,14.02761364,-0.303527
23.48800659,-9.05606651,13.17873383,-0.469858
22.66947174,-9.23185635,12.19856739,-0.54199
21.82070923,-9.43276882,11.14314461,-0.586589
20.84946823,-9.56517792,9.9424839,-0.620523
19.73483849,-9.61318111,8.68510914,-0.667196
18.33995819,-9.55836773,7.32504654,-0.74345
17.05892563,-9.34408951,6.16544914,-0.754852
15.79815102,-9.22451496,5.2083807,-0.759944
14.68384838,-9.12342834,4.51043892,-0.792494
13.52396965,-9.05479527,3.86563873,-0.800843
12.5544405,-8.95083141,3.3802166,-0.797485
11.47338772,-8.89768696,2.93855476,-0.817154
10.47154617,-8.85176849,2.5682869,-0.823258
9.44836903,-8.8003397,2.25437164,-0.826306
8.43383121,-8.76678276,1.98863602,-0.840143
7.41392803,-8.73423386,1.76119804,-0.835097
6.3902626,-8.70088768,1.56115723,-0.830958
5.36737585,-8.67516041,1.38978958,-0.803171
4.36178493,-8.65394974,1.25860977,-0.795818
3.34949112,-8.6279707,1.15696335,-0.776763
2.34710908,-8.61091328,1.08881378,-0.765635
1.34412527,-8.58957195,1.05181122,-0.767639
41.41802597,-9.49989414,20.78806114,12.527865
40.39894485,-9.49690437,20.63111305,11.523339
39.39943695,-9.49303818,20.44024467,10.537724
38.40956497,-9.49020481,20.2284565,9.567363
37.42527771,-9.48812485,20.00054741,8.612229
36.444664,-9.48707581,19.75760651,7.671181
35.46801758,-9.48769093,19.50027847,6.745276
34.49324799,-9.49053383,19.22627258,5.840017
33.52304459,-9.49487972,18.93423271,4.970733
