//X,Y,Z,C2M_signed_distances
-25.77425575,-14.5179882,16.78796005,1.356215
-26.71558762,-14.50220203,17.16612244,1.845305
-27.67196655,-14.49847889,17.52775764,2.363171
-28.63158607,-14.49166489,17.86127853,2.913647
-29.59620667,-14.48631382,18.17301369,3.482622
-30.56364059,-14.48240948,18.46771049,4.127951
-31.5356102,-14.47910976,18.74763107,4.869275
-32.50996399,-14.47835064,19.01317596,5.676119
-33.48695755,-14.47841263,19.26589203,6.533623
-34.46584702,-14.47788048,19.50684357,7.412845
-35.4474678,-14.47881794,19.73710251,8.307841
-36.43225098,-14.48038197,19.95630074,9.214203
-37.41975403,-14.48280048,20.16358185,10.128736
-38.41057587,-14.48558617,20.35800362,11.057232
-39.40834045,-14.48864841,20.53757477,12.004664
-40.41405106,-14.49173546,20.69676399,12.963064
-41.43279648,-14.49381161,20.82552338,13.932501
41.43556213,-15.49402046,20.83332062,14.263035
40.41782761,-15.4903183,20.71077919,13.30413
39.41226578,-15.48710537,20.55981445,12.36521
38.41262817,-15.48374462,20.38897705,11.434318
37.41980743,-15.48101234,20.20331764,10.511375
36.42930603,-15.47993946,20.00516891,9.593895
35.44081116,-15.47997284,19.79508018,8.683074
34.45574951,-15.48118496,19.57453537,7.78554
33.47166061,-15.48356724,19.34367943,6.917072
32.48904419,-15.48759079,19.10160446,6.071008
31.5087986,-15.49483395,18.84827232,5.253805
30.52862549,-15.50480652,18.58236504,4.47936
29.55053711,-15.51974487,18.30294228,3.780418
28.57382584,-15.53895283,18.00967407,3.204835
27.59283066,-15.56277847,17.69357491,2.657377
26.62140846,-15.58757019,17.35606766,2.128733
25.64169502,-15.62942028,16.98862648,1.623446
24.66499901,-15.67613983,16.56571007,1.173488
23.70709229,-15.72653198,16.10830688,0.75689
22.70258713,-15.82135487,15.57375336,0.372882
21.71540451,-15.93616199,14.92719841,0.098525
20.73462296,-15.95989704,14.1254673,-0.131223
19.76014519,-16.09381866,13.34238434,-0.296444
18.69232368,-16.22149658,12.49690723,-0.466992
17.56681824,-16.32320023,11.49152088,-0.593884
16.52923393,-16.41778183,10.52250004,-0.645021
15.31717587,-16.34767914,9.48127651,-0.798662
14.22462654,-16.34585762,8.51152229,-0.791393
13.1587286,-16.24777603,7.70773411,-0.824264
12.07529545,-16.13395691,7.00063419,-0.881183
11.04045868,-16.04802895,6.39127064,-0.909066
9.93399048,-16.06629372,5.85647964,-0.885243
8.97848511,-16.09558868,5.40692234,-0.836674
7.98541355,-15.94973564,4.96536255,-0.840372
6.96317387,-15.89583397,4.61600304,-0.844977
5.94462538,-15.87969971,4.34320641,-0.831089
4.92448664,-15.84904671,4.06453514,-0.79199
3.94159007,-15.8457613,3.8344841,-0.744343
2.96035361,-15.75338268,3.59296227,-0.687019
1.93867993,-15.7627821,3.51626587,-0.691519
0.91165191,-15.78131199,3.44368553,-0.663803
-0.03006681,-15.68648434,3.38360405,-0.670347
-1.1076014,-15.5985527,3.38282967,-0.692813
-2.07291961,-15.57627773,3.41153908,-0.681316
-3.12710714,-15.53253746,3.5154171,-0.708626
-4.12711239,-15.52268887,3.62449837,-0.698556
-5.06029177,-15.45198441,3.8235302,-0.773776
-6.19475365,-15.42479038,4.07344818,-0.786466
-7.11411285,-15.39765549,4.2773037,-0.775851
-8.14523506,-15.31510067,4.63900566,-0.871191
-9.1639204,-15.33109951,5.04545307,-0.887284
-10.22570229,-15.28852367,5.41881561,-0.867027
-11.18422127,-15.31266308,5.90287876,-0.875475
-12.27182198,-15.28041935,6.49378967,-0.908561
-13.33184814,-15.21047974,7.0203886,-0.839836
-14.30429649,-15.29393387,7.71921062,-0.812407
-15.41977978,-15.37610912,8.63327122,-0.774334
-16.40176773,-15.35624599,9.44172859,-0.726217
-17.44377136,-15.47904396,10.48719597,-0.607931
-18.3157711,-15.59315872,11.49928188,-0.535562
-19.26178932,-15.54330444,12.5166235,-0.476361
-20.19401741,-15.56097698,13.37471008,-0.305787
-21.03297806,-15.53120708,14.14499283,-0.161053
-21.99621773,-15.5194788,14.95873451,0.065135
-22.88925743,-15.54257298,15.56155109,0.377569
-23.83888435,-15.55400658,16.1347847,0.753184
-24.78170967,-15.53770542,16.58431816,1.179717
-25.72643471,-15.52164841,16.99071121,1.636419
-26.68692398,-15.50562382,17.3586483,2.140544
-27.64549637,-15.49791527,17.69355392,2.668631
-28.61285591,-15.49219227,18.00651932,3.215648
-29.57951355,-15.48800468,18.30022812,3.79151
-30.5501442,-15.4828186,18.57968903,4.489429
-31.52503586,-15.48067951,18.84578323,5.262549
-32.50188446,-15.4784193,19.09840965,6.078928
-33.48038864,-15.47672939,19.33958435,6.922294
-34.46240616,-15.47766876,19.57022476,7.790418
-35.4452095,-15.47839355,19.78999329,8.686654
-36.43194199,-15.48001194,19.99968147,9.596357
-37.42105865,-15.48243141,20.19763374,10.512964
-38.41320038,-15.48486233,20.38347244,11.435088
-39.41143799,-15.48825932,20.55490494,12.364665
-40.41803741,-15.49157047,20.70669746,13.304565
-41.43614197,-15.49433422,20.82908821,14.263439
41.43906021,-16.49298096,20.8370266,14.633934
40.42124557,-16.49019241,20.72115707,13.687582
39.41488647,-16.48649216,20.57726669,12.750475
38.41590118,-16.48336792,20.41499329,11.82055
37.42070007,-16.48071671,20.23832512,10.89541
36.42942429,-16.47890091,20.04951859,9.983551
35.43960953,-16.47887611,19.84946632,9.092184
34.4521904,-16.47950935,19.63913536,8.211372
33.46743774,-16.48223114,19.41974831,7.342215
32.4822464,-16.48604584,19.18998146,6.485926
31.49845695,-16.49202728,18.94841003,5.653499
30.51806068,-16.5013752,18.69612312,4.879227
29.53642654,-16.51357841,18.43107796,4.15996
28.55596733,-16.53170395,18.15175247,3.530167
27.57765198,-16.55320358,17.8572731,2.972181
26.59672356,-16.58300209,17.54386902,2.448445
25.61756706,-16.61273766,17.20156479,1.946198
24.63552475,-16.65426254,16.82213593,1.467032
23.66613388,-16.71893692,16.41192627,1.038573
22.6723423,-16.78316307,15.90234184,0.661736
21.72529221,-16.84303284,15.35598564,0.337246
20.72412682,-16.93768883,14.78068352,0.028853
19.66377258,-17.00303078,14.00842094,-0.212614
18.68062592,-17.14571381,13.22943783,-0.347644
17.61947823,-17.23511124,12.39429569,-0.499293
16.53625298,-17.30460167,11.40590572,-0.588093
15.47275925,-17.36212158,10.52569103,-0.680909
14.23451328,-17.28020668,9.51218128,-0.828769
13.14687157,-17.27697563,8.64440536,-0.840989
12.08483219,-17.2787571,7.92884159,-0.839092
11.02619457,-17.22438812,7.26695251,-0.859173
9.97221661,-17.1189537,6.69825268,-0.905543
8.92686081,-17.04214859,6.0678339,-0.818911
8.01188278,-17.02277946,5.74940777,-0.853874
6.8624773,-16.98937225,5.35879803,-0.862776
5.95628357,-16.93055725,5.05681705,-0.847164
4.8795352,-16.89935493,4.77239418,-0.831828
3.91827416,-16.835783,4.5023632,-0.785907
2.89200449,-16.84051704,4.37219048,-0.784139
1.92063165,-16.78909111,4.20710754,-0.747746
0.8887822,-16.6842804,4.08807182,-0.751387
-0.14631402,-16.70227432,4.05774117,-0.728727
-1.07592595,-16.70306778,4.09653854,-0.743228
-2.16344404,-16.61554718,4.14820671,-0.776568
-3.19156647,-16.63908195,4.19531822,-0.715313
-4.11667728,-16.53933334,4.30736732,-0.756067
-5.18846226,-16.49802208,4.5657711,-0.837721
-6.16771173,-16.42762756,4.74817848,-0.839158
-7.18101311,-16.36218071,5.01425934,-0.858104
-8.25003719,-16.3939743,5.38324642,-0.862769
-9.21399403,-16.33934212,5.7193079,-0.867113
-10.25128746,-16.29777908,6.16225624,-0.884289
-11.33453083,-16.30910683,6.67011642,-0.848418
-12.31906891,-16.34168434,7.23492718,-0.825572
-13.41349983,-16.43276596,7.96285534,-0.77332
-14.35018826,-16.40056038,8.68065262,-0.789898
-15.44428349,-16.39725113,9.57067394,-0.758876
-16.35329437,-16.55717659,10.50001144,-0.657245
-17.39017105,-16.58116722,11.46693611,-0.535065
-18.28338242,-16.57254791,12.32419205,-0.437225
-19.17285156,-16.59194183,13.24188995,-0.356577
-20.07384872,-16.60544395,14.02837753,-0.178189
-20.96607208,-16.58737564,14.77984524,0.003231
-21.90133095,-16.59103966,15.43066597,0.2852
-22.8570118,-16.55280495,15.96791458,0.634899
-23.79168129,-16.54661369,16.41793442,1.036881
-24.73884201,-16.52238464,16.82974434,1.473006
-25.69841766,-16.51735497,17.20454597,1.956207
-26.65534592,-16.51003075,17.54358482,2.455384
-27.62420845,-16.50068855,17.85831451,2.983741
-28.59190369,-16.49225426,18.15076065,3.540847
-29.56394958,-16.48680305,18.42781258,4.171212
-30.53787613,-16.48330688,18.6922226,4.888348
-31.51533508,-16.47960663,18.94434166,5.663417
-32.49361801,-16.47727776,19.18478775,6.492912
-33.47520828,-16.47688866,19.4151268,7.347215
-34.45855713,-16.47648048,19.63448715,8.215971
-35.44373703,-16.47771263,19.84401131,9.095477
-36.43193054,-16.47955132,20.04366684,9.986073
-37.42245483,-16.48153496,20.23237038,10.897215
-38.41539764,-16.48472595,20.40947914,11.820413
-39.4155426,-16.48808861,20.57263374,12.751482
-40.42154694,-16.49131012,20.71662331,13.68805
-41.44025421,-16.4941349,20.83250237,14.635218
41.44320679,-17.49335289,20.84108162,15.020201
40.42435837,-17.48967171,20.7317791,14.072971
39.41803741,-17.48624039,20.59530258,13.137425
38.41791534,-17.48286438,20.44099617,12.217705
37.42288589,-17.48010826,20.27349854,11.315691
36.42945862,-17.4786129,20.09411621,10.418977
35.43834305,-17.47751045,19.90390778,9.527454
34.45003891,-17.47837448,19.70442963,8.64383
33.46250534,-17.48011398,19.4958725,7.769706
32.4762001,-17.48422623,19.27755547,6.927955
31.49097443,-17.48974609,19.04885864,6.109243
30.50719833,-17.4975872,18.80947304,5.316721
29.52376175,-17.5094986,18.55874062,4.564493
28.54123688,-17.52407265,18.29543686,3.889698
27.55932426,-17.54449654,18.01815033,3.325381
26.57682419,-17.56796265,17.72311974,2.792816
25.59447289,-17.60223961,17.40898132,2.275521
24.61232567,-17.64064789,17.06431389,1.802926
23.63054848,-17.68606377,16.67644882,1.360381
22.66864777,-17.73138809,16.26379395,0.947364
21.67115211,-17.78419113,15.78485489,0.574328
20.67984772,-17.89548683,15.24117374,0.279607
19.69181442,-17.95919228,14.68735886,-0.02125
18.61207962,-18.03482628,13.93731689,-0.243108
17.64949608,-18.13057518,13.2153492,-0.384789
16.53696632,-18.21482277,12.39626598,-0.540283
15.45985222,-18.35228539,11.51521111,-0.591763
14.42133617,-18.32969666,10.74244881,-0.745768
13.16150284,-18.23944092,9.72915173,-0.871498
12.09625626,-18.21559906,8.87290096,-0.857412
11.06876659,-18.20280457,8.17805862,-0.841559
9.97421837,-18.23552895,7.52213097,-0.79328
9.01132488,-18.15017509,7.09124947,-0.870422
7.87657166,-18.05006599,6.53866386,-0.870892
6.93325758,-18.02774048,6.15080738,-0.831641
5.82973242,-18.01710892,5.8110733,-0.820731
4.92328167,-17.91941261,5.54501534,-0.853466
3.84908056,-17.87727737,5.33058453,-0.863448
2.84244823,-17.87029648,5.07603073,-0.7722
1.91910589,-17.82616043,4.98754215,-0.79903
0.82163715,-17.82057953,4.92748451,-0.804479
-0.10687614,-17.70127487,4.82870483,-0.808339
-1.18895495,-17.6042099,4.79482079,-0.815696
-2.18406487,-17.62714577,4.85361671,-0.793715
-3.20054865,-17.5044899,4.88809586,-0.803166
-4.22153759,-17.52754211,5.11905384,-0.849625
-5.24047279,-17.50778008,5.28730488,-0.834521
-6.19587135,-17.47840691,5.56624031,-0.890031
-7.25813627,-17.4279995,5.89501858,-0.921305
-8.23852158,-17.33635521,6.14379883,-0.906546
-9.34114265,-17.40395927,6.5953989,-0.875022
-10.30515385,-17.47659302,7.05723286,-0.822729
-11.35498524,-17.39042282,7.59819698,-0.855645
-12.45464134,-17.46050072,8.25282383,-0.791177
-13.34246731,-17.46338463,8.84909439,-0.746953
-14.41831017,-17.5294075,9.8266983,-0.760842
-15.32479,-17.58258438,10.63101387,-0.688602
-16.38776207,-17.6139183,11.48789024,-0.517877
-17.26180267,-17.70824242,12.34162426,-0.401953
-18.1358757,-17.6151123,13.19207001,-0.389008
-19.07932281,-17.59105682,13.98622704,-0.237872
-19.98012733,-17.60299873,14.6477623,-0.019676
-20.9226017,-17.59538841,15.2756424,0.25271
-21.84331894,-17.56267357,15.82229137,0.547202
-22.80112076,-17.56465149,16.30821991,0.925513
-23.73999405,-17.53497887,16.70900345,1.340233
-24.70966911,-17.5304966,17.08582878,1.801351
-25.66562271,-17.51861191,17.41451645,2.28307
-26.63153076,-17.5080719,17.72668266,2.801381
-27.60024452,-17.49838257,18.01918221,3.332489
-28.5739994,-17.49243546,18.29519081,3.899099
-29.54863548,-17.48528671,18.5564003,4.574503
-30.52636528,-17.48099136,18.80576897,5.325876
-31.50548172,-17.47889137,19.04436111,6.117159
-32.48698425,-17.47632599,19.27269936,6.933945
-33.469841,-17.47545433,19.49123955,7.774403
-34.45595169,-17.4760437,19.69999504,8.648276
-35.44233322,-17.47708511,19.89878654,9.530908
-36.43191147,-17.47860909,20.08844185,10.421131
-37.42370987,-17.48131371,20.26782608,11.316824
-38.41877365,-17.48395538,20.43594551,12.218763
-39.41879654,-17.48772812,20.59047699,13.13849
-40.42612839,-17.49112129,20.72675323,14.074897
-41.44355011,-17.49411201,20.83578491,15.020512
41.44706345,-18.49361992,20.84456635,15.409445
40.42835617,-18.48966217,20.74254227,14.476554
39.42100143,-18.48572731,20.61361122,13.562983
38.4204483,-18.48236275,20.46748543,12.656674
37.42424774,-18.47969246,20.30859375,11.755246
36.43024063,-18.47786903,20.13851738,10.857581
35.43809509,-18.47714043,19.95850372,9.966304
34.44763565,-18.4772644,19.76929283,9.098096
33.45930481,-18.47919464,19.57183838,8.24639
32.47050858,-18.48158836,19.36501122,7.40247
31.48388672,-18.48668671,19.14859962,6.573694
30.49765205,-18.49388695,18.92217255,5.768705
29.51266289,-18.50380516,18.68569374,5.019166
28.52701378,-18.51859283,18.43756294,4.317008
27.54274178,-18.53600311,18.17649078,3.689387
26.55825233,-18.56004715,17.90134811,3.151383
25.57348251,-18.58774567,17.60620689,2.648781
24.59247398,-18.62022018,17.29209518,2.161197
23.61207581,-18.65141106,16.95472336,1.69112
22.62381935,-18.70578384,16.58886337,1.270219
21.64551735,-18.76780891,16.19007301,0.878892
20.63831711,-18.791996,15.70479202,0.509508
19.64999962,-18.90884781,15.20230484,0.232743
18.65133858,-18.97257042,14.64518547,-0.037825
17.58317375,-19.06656075,13.96669006,-0.245305
16.59423637,-19.14939117,13.30291939,-0.397104
15.47951317,-19.18672562,12.44851208,-0.528015
14.43580246,-19.23598289,11.69447041,-0.636248
13.2916832,-19.37220001,10.97664738,-0.725744
12.19600296,-19.37434006,10.11666298,-0.758602
11.06386948,-19.31328964,9.35616875,-0.842771
10.03331089,-19.28211403,8.60159016,-0.786791
9.06139374,-19.17463493,8.02940941,-0.815258
7.83663368,-19.18143272,7.50928974,-0.836468
6.97676945,-19.11281204,7.12376785,-0.830714
5.86078453,-19.00283432,6.6985569,-0.848292
4.87369394,-18.99231911,6.41150856,-0.839721
3.85164738,-18.92592049,6.16906738,-0.850537
2.80445051,-18.90736008,5.95650578,-0.819453
1.85247433,-18.83163071,5.84551811,-0.856396
0.75579953,-18.76162148,5.67749214,-0.822969
-0.15138237,-18.77930832,5.69809055,-0.836644
-1.20883536,-18.71547127,5.73232841,-0.880171
-2.27434492,-18.67256927,5.73183727,-0.844792
-3.17171168,-18.65917587,5.90089607,-0.898623
-4.31254768,-18.50548935,5.98849964,-0.915766
-5.27785301,-18.5378418,6.20046139,-0.896021
-6.30202341,-18.511446,6.43219185,-0.889297
-7.33002901,-18.54987526,6.74441719,-0.842165
-8.30516815,-18.61246872,7.18420982,-0.851525
-9.36719418,-18.50089645,7.53547668,-0.837982
-10.3508606,-18.46517372,7.96045876,-0.798843
-11.40148544,-18.59126663,8.69481182,-0.791334
-12.37529469,-18.5843792,9.2884903,-0.739021
-13.3660984,-18.65165329,10.13432503,-0.7234
-14.36628437,-18.65150833,10.8708477,-0.636569
-15.29810238,-18.6861515,11.62073421,-0.510077
-16.22778511,-18.72062302,12.47579384,-0.437367
-17.16500473,-18.66072083,13.19649792,-0.326216
-18.01034927,-18.67265701,13.94614792,-0.22268
-18.95337105,-18.62281227,14.65700817,-0.073606
-19.93820763,-18.61135864,15.24249744,0.21813
-20.82128716,-18.580513,15.73387623,0.489897
-21.80450439,-18.56782532,16.23223305,0.849535
-22.74523926,-18.55401611,16.61781502,1.251154
-23.70435905,-18.54324532,16.98759842,1.67944
-24.67488861,-18.52823639,17.31702423,2.157028
-25.63713455,-18.5146389,17.61913872,2.648013
-26.60660172,-18.50382996,17.9084301,3.152127
-27.58153152,-18.49749756,18.18136597,3.697133
-28.55672073,-18.48981094,18.4387207,4.325279
-29.53481674,-18.48413086,18.68495369,5.027005
-30.51475906,-18.48036003,18.9203701,5.776411
-31.49707222,-18.47628021,19.1454792,6.580417
-32.47983932,-18.47490692,19.36163712,7.407587
-33.4662056,-18.47456932,19.56860542,8.250291
-34.45289612,-18.47525597,19.76570129,9.101782
-35.44156265,-18.47614479,19.95427513,9.968957
-36.43234634,-18.478405,20.13387489,10.859651
-37.42593765,-18.48046875,20.30360031,11.756975
-38.42139816,-18.48400879,20.46250153,12.658063
-39.42280579,-18.48741341,20.6084938,13.56511
-40.42996979,-18.4908371,20.73688698,14.478224
-41.44731903,-18.49366188,20.83927727,15.409407
41.45021439,-19.49330902,20.84773636,15.837328
40.43299103,-19.49023438,20.75282097,14.917711
39.4245224,-19.4855423,20.63215065,14.004222
38.42322922,-19.4822216,20.4940834,13.097565
37.42604446,-19.47910118,20.34388542,12.197215
36.43079376,-19.47703743,20.18299294,11.315186
35.43780518,-19.47612,20.01252747,10.448323
34.44646835,-19.47665215,19.83370781,9.58655
33.45590973,-19.47719193,19.64685249,8.729726
32.46678543,-19.480196,19.45213699,7.882373
31.47649002,-19.48370361,19.247509,7.065405
30.49009514,-19.48979759,19.0343914,6.274928
29.50125504,-19.49903297,18.81139183,5.504666
28.51471901,-19.51036263,18.57790375,4.769446
27.52782631,-19.5274086,18.33304405,4.112182
26.54175186,-19.5459919,18.07480049,3.543918
25.55456543,-19.57206917,17.80178452,3.027134
24.57214165,-19.6030407,17.51467133,2.537337
23.58898544,-19.6442585,17.21780014,2.076096
22.58865547,-19.6831665,16.87823868,1.625779
21.6232357,-19.73317337,16.5324955,1.227429
20.62090874,-19.79117966,16.16192436,0.837978
19.61257362,-19.80396843,15.70202065,0.476257
18.5994606,-19.90975952,15.19800186,0.214975
17.62309265,-19.99790001,14.67436314,-0.008323
16.57086754,-20.07569695,14.03664112,-0.201473
15.57347775,-20.17974854,13.47847748,-0.360393
14.42833233,-20.26812935,12.75665379,-0.502787
13.40370369,-20.2665844,11.92867565,-0.548558
12.34287643,-20.32367325,11.24083328,-0.628558
11.21894073,-20.32063103,10.41679382,-0.661479
10.16882896,-20.28541565,9.81007195,-0.757713
9.01909351,-20.31208038,9.20500469,-0.770481
8.03071213,-20.25342751,8.65489006,-0.779128
6.92958164,-20.20994377,8.14240932,-0.778314
5.93865204,-20.14034653,7.80177402,-0.821427
4.85306597,-20.06947136,7.42467785,-0.830432
3.81841421,-20.00933647,7.19163132,-0.862104
2.80422521,-19.93062019,6.96082401,-0.87244
1.82003617,-19.89559937,6.79358387,-0.853938
0.78102571,-19.87310219,6.77219009,-0.899623
-0.23964435,-19.82242966,6.61166286,-0.829946
-1.18673158,-19.73477745,6.62870121,-0.882027
-2.31750536,-19.6668148,6.69906425,-0.911424
-3.28648686,-19.67859077,6.76153469,-0.851205
-4.25855875,-19.71196365,7.02854061,-0.887356
-5.31447124,-19.59435654,7.18122101,-0.901184
-6.40674353,-19.68088722,7.48268604,-0.834616
-7.30097055,-19.62921715,7.71383667,-0.806192
-8.3981657,-19.55058861,8.04156685,-0.770243
-9.36061764,-19.67910004,8.63550377,-0.764607
-10.37690735,-19.72130394,9.26536465,-0.763983
-11.38731575,-19.69006157,9.80776691,-0.706092
-12.3468132,-19.75620461,10.48531151,-0.624765
-13.31330109,-19.73137474,11.18100834,-0.580887
-14.22125244,-19.71624565,11.89389896,-0.519057
-15.22223091,-19.76099396,12.67098808,-0.401651
-16.09528542,-19.75845528,13.33758545,-0.288659
-17.02219772,-19.72889519,14.05243587,-0.184421
-17.9305172,-19.64558983,14.64539337,-0.040369
-18.90780067,-19.64656448,15.25073624,0.208431
-19.81106567,-19.60514641,15.72492886,0.462065
-20.79724312,-19.59354591,16.19050598,0.818027
-21.73541451,-19.58075333,16.570961,1.190153
-22.70830154,-19.54096413,16.92409515,1.601112
-23.67300797,-19.53627014,17.241045,2.059628
-24.63855743,-19.52236748,17.5381031,2.524277
-25.61196327,-19.51157951,17.82045555,3.025665
-26.58493042,-19.50340843,18.08735466,3.545339
-27.56134987,-19.49342537,18.3411026,4.1152
-28.54195213,-19.48679352,18.58292007,4.777571
-29.52237511,-19.48197556,18.81353378,5.512479
-30.50522041,-19.47747803,19.03480148,6.280806
-31.48836327,-19.47503471,19.24741936,7.070648
-32.47483444,-19.47384071,19.45130348,7.886181
-33.46196747,-19.47377586,19.64593697,8.733358
-34.45103455,-19.47374725,19.83215904,9.589127
-35.4407692,-19.4757843,20.01002312,10.450738
-36.43379593,-19.47766876,20.17942238,11.318055
-37.42773056,-19.48031425,20.33930969,12.19914
-38.42465973,-19.48315048,20.48921585,13.099075
-39.42668915,-19.48701859,20.62655258,14.006562
-40.43375397,-19.49050331,20.74707222,14.918225
-41.45118332,-19.49399185,20.84284592,15.838236
41.45367432,-20.49302673,20.85129929,16.277655
40.4369545,-20.48953629,20.76280594,15.358683
39.42841339,-20.48613739,20.65006447,14.44831
38.42589569,-20.48168564,20.52048683,13.555609
37.42815018,-20.47885513,20.37910271,12.680206
36.43218994,-20.47632217,20.22772217,11.807991
35.43745422,-20.47482109,20.06672859,10.938831
34.44487762,-20.47442627,19.8976059,10.074405
33.45371628,-20.47606277,19.72171783,9.228834
32.46178436,-20.47735023,19.53778076,8.404854
31.47191048,-20.4808712,19.34596252,7.591013
30.48086548,-20.48581886,19.1450901,6.787282
29.49329567,-20.49368668,18.93626213,6.010189
28.50328255,-20.50400734,18.71778297,5.281642
27.51384926,-20.51718712,18.48812103,4.590615
26.52583313,-20.53677368,18.24787903,3.959127
25.53925896,-20.55749321,17.99523735,3.431702
24.55045319,-20.58505821,17.73125076,2.941957
23.56236839,-20.61669731,17.45145607,2.463365
22.57584,-20.65358353,17.15874481,2.019909
21.58244896,-20.69348526,16.83992958,1.598062
20.6041069,-20.74463463,16.51594353,1.202496
19.59106445,-20.82813072,16.16926193,0.845309
18.58589745,-20.84975815,15.73405457,0.510876
17.59926987,-20.87317848,15.26740837,0.225949
16.54489326,-20.98663521,14.74197006,0.013737
15.57415295,-21.03540039,14.1902256,-0.161528
14.48069286,-21.12524414,13.56974792,-0.306291
13.48329544,-21.23922539,13.03121662,-0.409401
12.37558651,-21.2486515,12.34710503,-0.522364
11.33648872,-21.34261894,11.73123932,-0.564539
10.23128986,-21.28396606,11.022892,-0.646428
9.14358902,-21.24308586,10.37938404,-0.710743
8.06548119,-21.26692581,9.83586025,-0.72235
7.00155401,-21.27252579,9.3555212,-0.729221
5.99054861,-21.23696327,8.92623138,-0.730266
4.8496871,-21.21758842,8.60496235,-0.766627
3.96003151,-21.1026268,8.31546879,-0.80843
2.78268099,-20.99954796,8.04588032,-0.846764
1.82293558,-21.03991127,7.93197441,-0.820572
0.73210829,-21.02215385,7.73630238,-0.749663
-0.14871497,-20.91885376,7.72113228,-0.825207
-1.33002937,-20.90444946,7.79846859,-0.857534
-2.19330525,-20.85918045,7.84816265,-0.87316
-3.37197161,-20.79161072,7.92829895,-0.857326
-4.20090723,-20.74986839,8.01971245,-0.835492
-5.42451525,-20.81328011,8.3730278,-0.819392
-6.26540184,-20.73188019,8.47701359,-0.775978
-7.40685511,-20.76786232,8.93445683,-0.74301
-8.30416203,-20.88437843,9.44762802,-0.723236
-9.36922836,-20.74486923,9.84471035,-0.716778
-10.3267746,-20.80270958,10.41260338,-0.651068
-11.26633739,-20.81249046,11.00324249,-0.592999
-12.26670456,-20.81721878,11.62215614,-0.506583
-13.18434048,-20.81883049,12.27732944,-0.441632
-14.13890362,-20.8151226,12.95931625,-0.369453
-15.04050446,-20.77492905,13.55916214,-0.26805
-16.01488495,-20.70178413,14.17751694,-0.158035
-16.91994286,-20.68375015,14.73677635,0.020064
-17.86761665,-20.69800186,15.29495621,0.247721
-18.80462646,-20.64354897,15.75298786,0.497481
-19.76842499,-20.62282944,16.18470573,0.816338
-20.73624611,-20.58759117,16.55749702,1.164087
-21.69526482,-20.55735779,16.88564301,1.565195
-22.6662426,-20.55356789,17.20232964,1.995134
-23.63904381,-20.52840042,17.48618317,2.446696
-24.61150932,-20.51634598,17.75751114,2.930416
-25.5876236,-20.50568199,18.01628304,3.423914
-26.56435204,-20.4981842,18.26252174,3.959995
-27.54528046,-20.49128532,18.49947739,4.596305
-28.52662277,-20.48450279,18.72563171,5.286768
-29.51125145,-20.47865295,18.9421463,6.014912
-30.49613762,-20.47580528,19.14964867,6.794039
-31.48212242,-20.47398567,19.34897041,7.595574
-32.47005463,-20.47282982,19.54030228,8.4092
-33.4586525,-20.47221756,19.72339439,9.230883
-34.44936752,-20.47355461,19.89877892,10.077874
-35.44148254,-20.47483063,20.06595039,10.942339
-36.43460464,-20.47696877,20.2249279,11.810358
-37.43056488,-20.4793396,20.37530136,12.682432
-38.427948,-20.48312378,20.5159359,13.557924
-39.43066788,-20.48637009,20.64486122,14.45019
-40.43838882,-20.49058342,20.75736046,15.360159
-41.45471954,-20.49388123,20.84605598,16.278692
41.45783234,-21.49392319,20.85465622,16.721314
40.44035339,-21.4895916,20.77268219,15.815493
39.43252945,-21.48541641,20.66754532,14.929793
38.4292984,-21.4817028,20.54677391,14.04985
37.43057251,-21.47821045,20.41428375,13.1741
36.43375397,-21.47603798,20.27216339,12.301283
35.43764496,-21.47390366,20.12096786,11.436858
34.44384003,-21.47326279,19.96197128,10.597395
33.45042419,-21.47339249,19.7959137,9.765294
32.45874023,-21.47533989,19.62326622,8.939378
31.4661541,-21.4775486,19.44310951,8.118346
30.47531891,-21.4820137,19.25561714,7.329541
29.48356438,-21.48835564,19.05957222,6.564306
28.49349785,-21.49785805,18.85538483,5.81847
27.50254822,-21.51060677,18.64159775,5.099871
26.51249504,-21.52544403,18.41745567,4.452143
25.52220535,-21.54624748,18.18403053,3.8669
24.53526306,-21.56944466,17.9411602,3.35563
23.54170799,-21.59967232,17.68605804,2.887871
22.55698967,-21.62978554,17.42204857,2.436689
21.55853653,-21.66622734,17.14168739,1.994848
20.56612206,-21.71167564,16.84181595,1.602538
19.57770157,-21.75118637,16.51976013,1.223233
18.59173012,-21.79839134,16.19748306,0.876193
17.56332016,-21.88445473,15.8478775,0.558549
16.55439377,-21.89112091,15.40430641,0.273893
15.5419693,-21.9541111,14.97497559,0.034963
14.47626591,-22.05648232,14.42952728,-0.109227
13.49961567,-22.11897087,13.8580389,-0.20835
12.45004177,-22.20576668,13.36228371,-0.326567
11.38678551,-22.21864891,12.75453091,-0.421265
10.3504591,-22.25175095,12.27933025,-0.531169
9.20987797,-22.2513237,11.74344826,-0.632331
8.13572121,-22.30509186,11.16624928,-0.622612
7.11065149,-22.27698135,10.63327789,-0.634954
5.96810055,-22.36521339,10.21951675,-0.602097
5.06857204,-22.29948425,9.83516884,-0.621297
3.93729925,-22.22893906,9.56331062,-0.709198
2.93929243,-22.2276268,9.38772106,-0.72969
1.81080484,-22.08550262,9.11044025,-0.770277
0.84459925,-22.07521248,9.01308155,-0.75783
-0.16741708,-22.03804588,9.00140858,-0.792144
-1.27917004,-22.00951385,8.95879745,-0.763084
-2.22600603,-22.00287819,9.0063982,-0.738176
-3.20788789,-21.93309212,9.14056587,-0.775896
-4.35299778,-21.94264412,9.3432436,-0.739915
-5.22167873,-21.88212204,9.52434921,-0.757094
-6.28729963,-21.90142822,9.93317318,-0.743543
-7.32979345,-21.92825508,10.2812767,-0.663208
-8.26132965,-21.86110878,10.55787182,-0.604259
-9.23677731,-21.94729042,11.20066452,-0.57979
-10.25650692,-21.90534782,11.64491749,-0.493836
-11.15826797,-21.93174553,12.16396046,-0.415063
-12.12669086,-21.90216637,12.735816,-0.354549
-13.06796551,-21.84339523,13.29090405,-0.294621
-14.0259304,-21.81022263,13.85078812,-0.186048
-14.92379856,-21.77396393,14.39187431,-0.080711
-15.88607979,-21.74667931,14.95961857,0.077027
-16.83687592,-21.70083809,15.41254425,0.283901
-17.80073929,-21.63781166,15.8113308,0.550138
-18.76027679,-21.65070915,16.21348953,0.866481
-19.70706749,-21.60098648,16.56260681,1.18461
-20.68228531,-21.57291412,16.89443398,1.558475
-21.66181946,-21.5591011,17.19186783,1.964977
-22.63285637,-21.53831673,17.45910454,2.411194
-23.60809898,-21.52389145,17.72072411,2.866737
-24.58479691,-21.51189232,17.97014809,3.341267
-25.56599617,-21.50271416,18.20833969,3.860653
-26.5465107,-21.49287605,18.43572807,4.450624
-27.52919769,-21.48705101,18.65520477,5.102802
-28.51424217,-21.48077774,18.86613846,5.822823
-29.50059128,-21.47731209,19.06907463,6.570049
-30.4882412,-21.47400856,19.26323318,7.334407
-31.47663498,-21.47228432,19.44959641,8.123783
-32.46554184,-21.47109604,19.62880325,8.942551
-33.45685959,-21.47178078,19.80076599,9.769722
-34.44866562,-21.47224808,19.96474838,10.600887
-35.44139481,-21.47420311,20.12155533,11.440222
-36.43684769,-21.47605324,20.27078819,12.303954
-37.43309784,-21.4789753,20.41140366,13.176583
-38.43215179,-21.48228645,20.542799,14.052466
-39.43363571,-21.48623466,20.66322517,14.930964
-40.44372559,-21.49012947,20.76786613,15.818474
-41.45805359,-21.49368477,20.8492794,16.721129
41.460186,-22.49347115,20.85721397,17.197571
40.44529343,-22.49025345,20.78194809,16.309382
39.43671417,-22.48532295,20.68517876,15.42494
38.43297195,-22.48112106,20.5730114,14.544666
37.43310165,-22.47779274,20.44948196,13.671164
36.43471527,-22.47509384,20.31622124,12.817041
35.43851852,-22.47320557,20.17471886,11.976816
34.44287872,-22.4720993,20.02570724,11.138867
33.44913864,-22.47209167,19.87017632,10.305142
32.45472717,-22.47268105,19.7078228,9.480337
31.46229172,-22.4752388,19.53931999,8.687473
30.46916962,-22.47912979,19.36392021,7.903282
29.47688675,-22.48487473,19.18124962,7.128985
28.48421288,-22.49261093,18.99010277,6.375943
27.49264908,-22.50332069,18.79092789,5.67078
26.50140381,-22.51768494,18.5837822,4.993164
25.50947762,-22.53397369,18.36705208,4.354943
24.51830101,-22.55654907,18.14334679,3.810298
23.52722549,-22.57961655,17.91031075,3.330192
22.53454208,-22.61049461,17.66883469,2.866134
21.5449791,-22.64029121,17.41950798,2.440014
20.54499245,-22.67373848,17.15219498,2.020478
19.56272507,-22.70755768,16.88158989,1.634448
18.54806328,-22.7564888,16.59306526,1.26775
17.55172539,-22.79222488,16.26693916,0.936798
16.5686512,-22.87340736,15.96702576,0.654672
15.51797771,-22.93291855,15.58426762,0.386944
14.53063774,-22.94475555,15.15308857,0.165252
13.50568771,-23.0059433,14.72341347,-0.01358
12.45210171,-23.0925312,14.20956326,-0.119695
11.49054909,-23.14582443,13.81430626,-0.238428
10.34285641,-23.20794487,13.2961483,-0.339381
9.3648119,-23.27828407,12.85790443,-0.367507
8.24162674,-23.26816559,12.38862324,-0.467961
7.21560907,-23.29089928,11.97889137,-0.50669
6.12502813,-23.26781654,11.47820663,-0.510582
5.09543037,-23.28721046,11.16675091,-0.542536
4.04305601,-23.28843117,10.88547611,-0.556988
3.00223994,-23.24395752,10.63237572,-0.589996
1.96290541,-23.2808075,10.54526997,-0.612322
0.94954717,-23.1659317,10.42369747,-0.682864
-0.18226913,-23.22144318,10.3528204,-0.612445
-1.03138149,-23.17446899,10.32266426,-0.622747
-2.20669174,-23.07334137,10.32946777,-0.636622
-3.13981771,-23.05228233,10.51061249,-0.667212
-4.21399355,-23.03021049,10.70366669,-0.656886
-5.13449717,-23.03436089,10.91086388,-0.599818
-6.23235464,-22.99044418,11.27371788,-0.610558
-7.13528013,-22.96926689,11.5403471,-0.552487
-8.18947697,-23.02805138,11.99556351,-0.464398
-9.10025406,-22.97153664,12.28934097,-0.397137
-10.09991837,-22.9246769,12.76266861,-0.353494
-11.06340981,-22.89925575,13.20892715,-0.272123
-12.00836468,-22.89029884,13.7202034,-0.185181
-12.90654564,-22.83834076,14.21130943,-0.121895
-13.90177441,-22.76070213,14.70005798,-0.008637
-14.87017918,-22.78178406,15.14227486,0.211383
-15.80246735,-22.73869896,15.53967476,0.409621
-16.74022102,-22.67469025,15.94168091,0.620531
-17.74998283,-22.64963913,16.32470322,0.910797
-18.70337677,-22.60210419,16.61198425,1.244316
-19.66442299,-22.59107399,16.92171669,1.594857
-20.64743805,-22.57035637,17.21029091,1.986935
-21.62592125,-22.54897118,17.46598053,2.407157
-22.60354424,-22.53033257,17.71113968,2.836753
-23.58180618,-22.51852608,17.9473877,3.308868
-24.56399918,-22.50697136,18.17457008,3.794562
-25.54618645,-22.49713135,18.3932991,4.348895
-26.52980614,-22.49047661,18.60483742,4.991457
-27.5163002,-22.48246193,18.80864334,5.671736
-28.50330353,-22.47802162,19.00484085,6.379115
-29.49137306,-22.47414398,19.19331741,7.132883
-30.48047256,-22.47173119,19.3749733,7.907105
-31.47190475,-22.47003365,19.54941368,8.691594
-32.46230698,-22.47046661,19.7165432,9.485014
-33.45523071,-22.46995354,19.87708092,10.309013
-34.44794464,-22.47166824,20.03032875,11.142899
-35.44262695,-22.47307587,20.17705727,11.98023
-36.43851089,-22.47545433,20.31642723,12.820428
-37.4366188,-22.47825241,20.44755173,13.67436
-38.435112,-22.48186493,20.56975555,14.546766
-39.43891144,-22.4858551,20.68170357,15.426958
-40.44715881,-22.49007034,20.77820015,16.310736
-41.46224594,-22.49333,20.85294533,17.199082
41.46294022,-23.49338722,20.85992813,17.690718
40.45013428,-23.48982811,20.7909565,16.804512
39.44076157,-23.48540497,20.70233727,15.920992
38.43696594,-23.48123932,20.5989666,15.054753
37.43551636,-23.47754669,20.4842186,14.206113
36.43690491,-23.4742794,20.3602581,13.362342
35.4386673,-23.47218132,20.22799873,12.520136
34.4428978,-23.47054672,20.08883286,11.68175
33.44684982,-23.47045135,19.94305801,10.863694
32.45275116,-23.47103119,19.79147148,10.065344
31.45826912,-23.47273254,19.6336956,9.270425
30.46463203,-23.47587204,19.4698925,8.481303
29.47123146,-23.48065758,19.29947853,7.717891
28.47715759,-23.48731041,19.12194061,6.98208
27.48435211,-23.49682045,18.93719673,6.260931
26.49054527,-23.50840759,18.74451447,5.561072
25.49852753,-23.52420807,18.545187,4.92416
24.50627136,-23.54181671,18.33889198,4.325577
23.51268387,-23.56431007,18.12550926,3.78537
22.520401,-23.58710098,17.90545273,3.335274
21.52637482,-23.61600113,17.67968941,2.894413
20.53285789,-23.6451931,17.44624138,2.473991
19.53460884,-23.68139839,17.20506477,2.082864
18.54662132,-23.70945358,16.95788193,1.700941
17.52807999,-23.74949074,16.68938255,1.353726
16.52214432,-23.80174255,16.38095093,1.050015
15.55798531,-23.84723663,16.08789063,0.786788
14.52502441,-23.90085793,15.78591061,0.511965
13.50447083,-23.94322586,15.43165207,0.30038
12.48993015,-23.97460365,15.04336071,0.114223
11.44900227,-24.04823303,14.62738419,0.002618
10.43475628,-24.1517601,14.25940514,-0.08022
9.40555477,-24.17920876,13.808815,-0.151559
8.39812374,-24.20153809,13.45252419,-0.239613
7.27419424,-24.26632118,13.1158514,-0.308841
6.30682659,-24.29428101,12.83941078,-0.352038
5.18412781,-24.2440567,12.49605942,-0.437205
4.12686586,-24.25971222,12.19452095,-0.429645
3.12247348,-24.31246758,11.99513721,-0.403081
2.08811903,-24.2243557,11.75948143,-0.453501
1.01136947,-24.26764297,11.71857834,-0.445435
0.01318236,-24.21745872,11.61299515,-0.451813
-1.01664019,-24.18479919,11.61437607,-0.465481
-2.03249788,-24.20584106,11.7976408,-0.483837
-3.0755868,-24.16601563,11.85408115,-0.460664
-4.02229548,-24.10803604,12.0030489,-0.466669
-5.06110144,-24.04430389,12.24911594,-0.487404
-6.00919008,-23.9973011,12.46258163,-0.464426
-7.08877468,-24.0552845,12.78706074,-0.342256
-7.99778652,-24.03253365,13.05002785,-0.276089
-8.9804821,-23.96776199,13.44074917,-0.251686
-9.95885086,-23.97052383,13.86688232,-0.17439
-10.91747189,-23.92109489,14.24466038,-0.08585
-11.85719109,-23.81236267,14.59708977,-0.015013
-12.83454895,-23.79252434,15.02956009,0.124072
-13.78018093,-23.79139137,15.43026161,0.301686
-14.7999382,-23.69972801,15.75739765,0.508499
-15.72391319,-23.68835449,16.07929993,0.754649
-16.70949173,-23.66483688,16.42588806,1.02622
-17.67767525,-23.63420296,16.71913147,1.335789
-18.65524673,-23.60335159,16.99665451,1.667175
-19.63316154,-23.57606888,17.25264931,2.044299
-20.61481667,-23.55602074,17.49657631,2.435019
-21.59606171,-23.53765488,17.72815323,2.861543
-22.57743073,-23.52470779,17.95045853,3.306338
-23.56111717,-23.51146126,18.16487694,3.763292
-24.54419899,-23.5000515,18.37249947,4.311847
-25.52972984,-23.49160194,18.57424545,4.916008
-26.51685905,-23.48324394,18.76961517,5.558317
-27.50424385,-23.47902489,18.95845222,6.261191
-28.49359703,-23.47466278,19.14048004,6.984269
-29.48381996,-23.47148132,19.31593132,7.720195
-30.47498512,-23.46946907,19.4850235,8.484906
-31.46690178,-23.46879578,19.64760208,9.274503
-32.46034622,-23.46788788,19.8032608,10.069361
-33.45371246,-23.46951675,19.95244026,10.86863
-34.4481926,-23.47010994,20.09540749,11.685983
-35.4436264,-23.47219467,20.23211479,12.524383
-36.44119644,-23.47473717,20.36182404,13.366235
-37.4394989,-23.47783852,20.48342514,14.209586
-38.43963623,-23.48135567,20.59670448,15.056988
-39.44311142,-23.48593903,20.69971848,15.923176
-40.45158386,-23.48973656,20.78857803,16.805617
-41.4660759,-23.49328995,20.8566761,17.693241
41.46655655,-24.4932518,20.86293411,18.184721
40.45368958,-24.4893322,20.8001442,17.307297
39.44534683,-24.48529625,20.71914864,16.44853
38.4403801,-24.48129082,20.6241436,15.599182
37.4389267,-24.47716713,20.51845551,14.752577
36.43858719,-24.47406006,20.40371895,13.907588
35.44006348,-24.47101593,20.28096008,13.070744
34.44229126,-24.46963692,20.15121078,12.25843
33.4463768,-24.46802902,20.01543427,11.454395
32.45012283,-24.46887207,19.87366676,10.653198
31.45562363,-24.47000694,19.72672272,9.857202
30.46068382,-24.4721508,19.57422829,9.090871
29.46554947,-24.47630692,19.41544533,8.339607
28.47180748,-24.48256874,19.25092888,7.596735
27.47680855,-24.48960495,19.07996559,6.869084
26.48240089,-24.5003643,18.90231895,6.187965
25.48867416,-24.51357841,18.71794319,5.526089
24.49596977,-24.52890587,18.52867508,4.892365
23.50077438,-24.54628181,18.33345795,4.328592
22.50846291,-24.56848717,18.13381577,3.818076
21.51275253,-24.59031487,17.92912483,3.366977
20.51660156,-24.61767006,17.71873856,2.954932
19.52054787,-24.64501381,17.50087929,2.546885
18.52873611,-24.67961121,17.28764153,2.176108
17.52051163,-24.71065521,17.05754852,1.812035
16.51612282,-24.73874092,16.80150414,1.485687
15.52854538,-24.78081322,16.54911232,1.194298
14.52442837,-24.82350349,16.29482651,0.919165
13.50983143,-24.85494423,16.01656914,0.666583
12.48899841,-24.9296093,15.73456573,0.474521
11.44683361,-24.99632645,15.38694,0.322388
10.48965645,-24.99228477,15.01900101,0.193875
9.44282627,-25.03411293,14.74566936,0.034612
8.36294746,-25.148386,14.43267632,-0.007255
7.41277027,-25.1350975,14.10194588,-0.089075
6.30113316,-25.15093422,13.79627705,-0.1581
5.33468962,-25.23823166,13.6361866,-0.188812
4.22822762,-25.27026749,13.40162659,-0.212735
3.26198912,-25.22349358,13.15378952,-0.237402
2.17978573,-25.24678612,13.06107903,-0.271071
1.14044416,-25.23385048,12.92333412,-0.261376
0.15357728,-25.22623444,12.90136147,-0.282322
-0.90611273,-25.18534088,12.91644669,-0.309796
-1.92255318,-25.17553139,12.90909195,-0.261808
-2.90599656,-25.14656258,13.02011871,-0.272897
-3.92436886,-25.09671783,13.17878819,-0.273606
-4.88215113,-25.03555298,13.40135384,-0.309092
-5.96802521,-25.08807373,13.67084503,-0.210243
-6.88593817,-25.07661819,13.83498859,-0.114906
-7.86441565,-24.97228241,14.0817709,-0.097531
-8.86023998,-24.93834496,14.44383717,-0.048037
-9.87064838,-24.89415932,14.71675682,0.071443
-10.77807236,-24.84683228,15.02046013,0.169612
-11.75646687,-24.82940865,15.42015457,0.288076
-12.77419758,-24.78090286,15.72444725,0.47039
-13.71149349,-24.73085785,16.00243568,0.664651
-14.70023918,-24.71697235,16.32309341,0.896876
-15.67260361,-24.65384293,16.58152962,1.153101
-16.66362,-24.62648201,16.84098053,1.45281
-17.63893509,-24.60811234,17.08286667,1.789156
-18.61654091,-24.58705139,17.32366753,2.138762
-19.60277176,-24.56511497,17.55405807,2.512496
-20.58497429,-24.54660797,17.76968384,2.919512
-21.57082939,-24.53057098,17.97828102,3.333843
-22.55562592,-24.51542473,18.17886925,3.790724
-23.54092216,-24.50319672,18.37442017,4.309417
-24.52757263,-24.49394035,18.56555939,4.879129
-25.51603317,-24.48465347,18.75131798,5.518534
-26.50482559,-24.47974396,18.93131065,6.18505
-27.49549103,-24.47471428,19.10505104,6.869505
-28.48572159,-24.47126389,19.272995,7.598026
-29.47704697,-24.46831322,19.43578148,8.341913
-30.46993637,-24.4671936,19.59303284,9.09394
-31.46364212,-24.46636009,19.7440033,9.860911
-32.4585495,-24.46724701,19.88866997,10.658856
-33.45331573,-24.46752548,20.02686691,11.459706
-34.44840622,-24.46937752,20.15976715,12.26331
-35.44549179,-24.47112846,20.28684235,13.075401
-36.44366455,-24.47414398,20.40673447,13.911984
-37.44323349,-24.47748184,20.51902008,14.756382
-38.44353867,-24.48134995,20.62320137,15.601826
-39.44820023,-24.48549652,20.71754456,16.450962
-40.45521927,-24.48986053,20.7985878,17.308806
-41.47008896,-24.49350929,20.86001587,18.187777
41.46990204,-25.49262619,20.86621284,18.701048
40.45749283,-25.4895134,20.80923843,17.846361
39.45003891,-25.48507881,20.73582458,16.995508
38.44413376,-25.48066139,20.64911652,16.145504
37.44206238,-25.47718811,20.55199814,15.299853
36.44109344,-25.47366142,20.44634628,14.470407
35.44130707,-25.47074127,20.33298874,13.659532
34.44311523,-25.46819115,20.21287155,12.85173
33.44573975,-25.46715355,20.08688736,12.046328
32.44919205,-25.46606827,19.95535851,11.249014
31.45317078,-25.46687508,19.81863403,10.481725
30.45751953,-25.46918678,19.67715263,9.722141
29.46195602,-25.47212219,19.52990341,8.966201
28.46631622,-25.47689056,19.37732124,8.227515
27.47108078,-25.48415565,19.21975708,7.524606
26.47630692,-25.49250412,19.05646515,6.830909
25.48062897,-25.50236511,18.88727951,6.151908
24.48684311,-25.5157032,18.71421051,5.528275
23.49168777,-25.53103256,18.53643417,4.928068
22.49538422,-25.54828835,18.35346985,4.364214
21.5027256,-25.57008362,18.16880417,3.881934
20.50402641,-25.59095001,17.97816086,3.445314
19.50901222,-25.61541367,17.78528404,3.045362
18.51145554,-25.64157677,17.58914185,2.665354
17.51524544,-25.67093277,17.39116669,2.298577
16.51295471,-25.7006588,17.18430328,1.966999
15.50637531,-25.73386192,16.96377182,1.648939
14.51866055,-25.76643562,16.74965286,1.372354
13.49506283,-25.82367897,16.53017044,1.109134
12.48288345,-25.85481453,16.2638073,0.897158
11.50384331,-25.86965942,16.00147247,0.690152
10.48693752,-25.9162693,15.79384327,0.506591
9.41489887,-25.97568512,15.51712227,0.370998
8.46302319,-25.97702599,15.23903751,0.258365
7.38964462,-26.07314301,15.03401756,0.179052
6.4240489,-26.08823776,14.81811047,0.094863
5.31672049,-26.09576988,14.53479195,0.043994
4.38398886,-26.10378456,14.33823013,0.008803
3.30687618,-26.11519814,14.238451,-0.058172
2.25968409,-26.16392708,14.11292648,-0.046385
1.26334465,-26.19441605,14.01858234,-0.024243
0.27029788,-26.12083435,13.97343063,-0.093869
-0.82097483,-26.11975098,14.00419617,-0.095419
-1.79032803,-26.13100433,14.02426147,-0.055355
-2.77548766,-26.10038185,14.1202755,-0.059857
-3.82000804,-26.08875656,14.28644943,-0.042435
-4.82199574,-26.09631348,14.4180212,0.022797
-5.79709291,-26.01212311,14.52390957,0.070393
-6.7802577,-25.94782066,14.70987415,0.109931
-7.73757792,-25.94157982,15.02622986,0.158897
-8.78651714,-25.88196945,15.26543045,0.253396
-9.71116638,-25.83244705,15.50305748,0.350905
-10.72521687,-25.78975296,15.78954506,0.483508
-11.71952248,-25.76301384,16.02469826,0.671843
-12.68108463,-25.74531174,16.27373123,0.878751
-13.67000771,-25.71599197,16.52579689,1.101605
-14.6426096,-25.66548347,16.75678635,1.34441
-15.62491322,-25.64083672,17.00302887,1.613737
-16.61978531,-25.61143684,17.22354889,1.93191
-17.6050663,-25.58651924,17.42744827,2.260817
-18.5865593,-25.56785774,17.6315136,2.630838
-19.5749321,-25.55147743,17.833004,3.00987
-20.56103134,-25.53355026,18.02622414,3.41361
-21.5478878,-25.52018738,18.21487808,3.852066
-22.5356636,-25.50721741,18.39875031,4.342596
-23.52445984,-25.49563408,18.57810211,4.912684
-24.51347923,-25.48574638,18.75302505,5.515912
-25.50446701,-25.48032379,18.92377281,6.146668
-26.49584389,-25.47413063,19.0881691,6.82822
-27.48692894,-25.47029877,19.24784088,7.523777
-28.47979546,-25.46744919,19.40281296,8.229083
-29.47218323,-25.46570015,19.55305672,8.968757
-30.46601868,-25.4647522,19.69863701,9.72514
-31.46166039,-25.46532059,19.83845139,10.486927
-32.4573822,-25.46521759,19.97200584,11.254867
-33.45297241,-25.46666718,20.10032082,12.051969
-34.44976044,-25.46800613,20.22333717,12.857149
-35.44751358,-25.47101212,20.34054947,13.664876
-36.44677734,-25.47382164,20.45093918,14.475259
-37.44660187,-25.47717667,20.55387306,15.303698
-38.44818878,-25.48122787,20.64914894,16.149214
-39.45186996,-25.48555183,20.73505211,16.997269
-40.46078873,-25.48995781,20.80800819,17.849312
-41.4725914,-25.4935894,20.86266708,18.703669
41.4733963,-26.49325562,20.86933899,19.245751
40.46153641,-26.48897934,20.8185215,18.392283
39.45393372,-26.48498535,20.75200272,17.541868
38.44852066,-26.48077202,20.67359924,16.698965
37.44505692,-26.47638893,20.58496284,15.876185
36.44363785,-26.47328568,20.48796844,15.064877
35.4436264,-26.47022438,20.38383865,14.254865
34.44419479,-26.46738625,20.27339554,13.445801
33.44594193,-26.46539497,20.1572113,12.652461
32.44881439,-26.46455193,20.03579712,11.883786
31.45168877,-26.46462631,19.90937042,11.11816
30.45568657,-26.46596146,19.77822304,10.355894
29.45875359,-26.46835327,19.64248276,9.612606
28.46263695,-26.47189903,19.50189018,8.897018
27.46656036,-26.47758865,19.35656738,8.187002
26.47107506,-26.48426628,19.20716476,7.487183
25.47545624,-26.49299049,19.05387878,6.831725
24.47895622,-26.50325584,18.89548683,6.189684
23.48332214,-26.51673889,18.73305702,5.566487
22.48839569,-26.53243828,18.56726646,5.002749
21.49107933,-26.54937935,18.39780807,4.465077
20.49655533,-26.56832123,18.22711945,3.977652
19.49947357,-26.58912849,18.05439949,3.563668
18.50132561,-26.61223412,17.87934875,3.170113
17.50379753,-26.63752365,17.70126915,2.817361
16.50473595,-26.66331673,17.5205574,2.471145
15.50202274,-26.69269562,17.33228683,2.158085
14.50277233,-26.72571373,17.14547348,1.864966
13.49233627,-26.74876022,16.94120979,1.594763
12.50608063,-26.7740593,16.74880409,1.349802
11.48020077,-26.81752968,16.55972099,1.129527
10.48028755,-26.86458206,16.35837936,0.949267
9.47311115,-26.89204407,16.15682793,0.783295
8.4420557,-26.93493462,15.9578886,0.642027
7.44853449,-26.93127251,15.73250771,0.524169
6.42188787,-26.98258591,15.56257343,0.433194
5.43853474,-26.99283409,15.4285717,0.337042
4.36689472,-27.02057076,15.29234886,0.270448
3.36417055,-27.07301521,15.16505051,0.261834
2.34813714,-27.05792809,15.02119541,0.235368
1.34882498,-27.03488159,14.92410564,0.210307
0.30968904,-27.11063957,14.97153091,0.218428
-0.65820378,-27.04341507,14.9562664,0.179682
-1.70569611,-26.96561623,14.96978092,0.142349
-2.76198483,-27.00751114,15.02503204,0.226213
-3.72457004,-27.02393723,15.08845043,0.304509
-4.69380713,-26.93744659,15.18819237,0.303233
-5.70076656,-26.91554642,15.38210297,0.346975
-6.70285511,-26.90718651,15.57966518,0.418376
-7.70683479,-26.8733139,15.74227715,0.530939
-8.65481377,-26.83789063,15.94786644,0.622585
-9.66063976,-26.78481483,16.16812515,0.741867
-10.66034794,-26.76132965,16.379776,0.911872
-11.65443993,-26.71958733,16.57156944,1.100494
-12.64046478,-26.68753433,16.76031494,1.3251
-13.62622261,-26.65694427,16.95687866,1.563959
-14.60034847,-26.63911057,17.16561699,1.830069
-15.59680176,-26.61312866,17.36781502,2.119247
-16.58388901,-26.59190941,17.55904961,2.436385
-17.57381248,-26.57154655,17.7430191,2.780527
-18.56139374,-26.55278778,17.92225647,3.13721
-19.55079651,-26.5348835,18.09936905,3.528627
-20.5403614,-26.52190399,18.27353477,3.946906
-21.53022957,-26.50818825,18.44349289,4.442726
-22.51992607,-26.49749565,18.61042404,4.984167
-23.51065636,-26.48786736,18.77458,5.55388
-24.50202751,-26.48077393,18.9349823,6.182211
-25.49521255,-26.47381401,19.09024239,6.826367
-26.48776245,-26.46950531,19.24095726,7.48504
-27.48126221,-26.46641731,19.38722992,8.187689
-28.47467995,-26.46434593,19.52921867,8.899117
-29.4684639,-26.46320534,19.66733742,9.615273
-30.46362114,-26.46302414,19.80134583,10.359638
-31.45983124,-26.46278,19.93027878,11.123082
-32.4563942,-26.46395111,20.05393219,11.889293
